ply
format ascii 1.0
comment PCL generated
obj_info is_cyberware_data 0
obj_info is_mesh 0
obj_info is_warped 0
obj_info is_interlaced 0
obj_info num_cols 123
obj_info num_rows 1
obj_info echo_rgb_offset_x 0
obj_info echo_rgb_offset_y 0
obj_info echo_rgb_offset_z 0
obj_info echo_rgb_frontfocus 0.0
obj_info echo_rgb_backfocus 0.0
obj_info echo_rgb_pixelsize 0.0
obj_info echo_rgb_centerpixel 0
obj_info echo_frames 1
obj_info echo_lgincr 0.0
element vertex 123
property float x
property float y
property float z
property uchar red
property uchar green
property uchar blue
end_header
177.38 -62.6324 -19.526 0 0 0
200.049 -105.708 -18.663 0 0 0
200.049 -105.708 -18.663 0 0 0
200.049 -105.708 -18.663 0 0 0
150.191 -102.43 -18.657 0 0 0
177.068 -59.3855 -18.878 0 0 0
172.818 -40.843 -18.875 0 0 0
161.233 -119.899 -18.396 0 0 0
201.01 -99.9456 -18.452 0 0 0
201.01 -99.9456 -18.452 0 0 0
195.129 -99.8231 -18.342 0 0 0
209.071 -82.9608 -18.378 0 0 0
203.254 -78.9797 -18.398 0 0 0
152.106 -118.935 -18.203 0 0 0
151.071 -116.91 -18.168 0 0 0
153.091 -116.983 -18.184 0 0 0
157.263 -114.922 -18.145 0 0 0
163.226 -112.974 -18.185 0 0 0
183.124 -109.945 -18.224 0 0 0
173.225 -108.985 -18.117 0 0 0
165.092 -105.971 -18.089 0 0 0
166.01 -105.789 -18.105 0 0 0
147.624 -95.2805 -18.01 0 0 0
199.005 -84.9918 -18.195 0 0 0
197.081 -81.8875 -18.271 0 0 0
194.064 -80.9745 -18.122 0 0 0
146.81 -72.9548 -18.058 0 0 0
146.81 -72.9548 -18.058 0 0 0
201.429 -72.7828 -18.293 0 0 0
177.969 -65.8308 -18.236 0 0 0
176.835 -60.6433 -18.194 0 0 0
192.502 -58.7938 -18.225 0 0 0
175.492 -53.4531 -18.04 0 0 0
175.06 -51.3672 -18.214 0 0 0
174.645 -49.5437 -18.032 0 0 0
172.468 -39.4968 -18.129 0 0 0
168.469 -38.252 -18.062 0 0 0
171.331 -34.2792 -18.252 0 0 0
171.331 -34.2792 -18.252 0 0 0
124.107 -128.964 -17.858 0 0 0
150.881 -118.11 -17.828 0 0 0
150.881 -118.11 -17.828 0 0 0
154.052 -117.932 -17.806 0 0 0
154.052 -117.932 -17.806 0 0 0
156.933 -115.752 -17.896 0 0 0
156.933 -115.752 -17.896 0 0 0
156.933 -115.752 -17.896 0 0 0
170.137 -114.464 -17.986 0 0 0
170.137 -114.464 -17.986 0 0 0
182.649 -110.825 -17.92 0 0 0
182.598 -107.016 -17.948 0 0 0
150.041 -102.95 -17.901 0 0 0
150.041 -102.95 -17.901 0 0 0
195.037 -100.473 -17.832 0 0 0
200.715 -99.1088 -17.945 0 0 0
201.732 -98.5351 -17.953 0 0 0
148.094 -93.965 -17.775 0 0 0
199.516 -84.1779 -17.937 0 0 0
199.516 -84.1779 -17.937 0 0 0
195.676 -83.3215 -17.997 0 0 0
208.572 -83.137 -17.931 0 0 0
208.572 -83.137 -17.931 0 0 0
193.029 -82.946 -17.865 0 0 0
203.131 -79.356 -17.952 0 0 0
202.303 -76.3686 -17.992 0 0 0
202.303 -76.3686 -17.992 0 0 0
200.736 -70.7841 -17.916 0 0 0
208.808 -68.9655 -17.98 0 0 0
208.808 -68.9655 -17.98 0 0 0
177.038 -65.9844 -17.808 0 0 0
177.059 -62.9603 -17.837 0 0 0
178.012 -62.9573 -17.841 0 0 0
177.086 -59.9344 -17.852 0 0 0
207.808 -59.9707 -17.926 0 0 0
193.04 -57.9785 -17.881 0 0 0
192.181 -50.9704 -17.978 0 0 0
174.013 -48.8868 -17.781 0 0 0
173.072 -45.9684 -17.748 0 0 0
173.123 -44.9655 -17.744 0 0 0
174.011 -43.9347 -17.739 0 0 0
172.044 -34.753 -17.758 0 0 0
165.068 -104.998 -17.625 0 0 0
165.068 -104.998 -17.625 0 0 0
153.133 -65.9531 -17.577 0 0 0
205.129 -57.9708 -17.685 0 0 0
205.129 -57.9708 -17.685 0 0 0
193.081 -50.936 -17.685 0 0 0
172.093 -38.9709 -17.675 0 0 0
169.116 -36.9438 -17.596 0 0 0
171.156 -34.9892 -17.657 0 0 0
87.3583 -129.773 -16.82 0 0 0
129.165 -73.4013 -16.941 0 0 0
156.857 -52.525 -16.874 0 0 0
129.048 -69.8883 -16.613 0 0 0
129.048 -69.8883 -16.613 0 0 0
132.487 -37.7362 -16 0 0 0
177.38 -62.6324 -19.526 0 0 0
176.88 -59.25 -19.541 0 0 0
152.727 -65.8421 -18.842 0 0 0
192.502 -58.7938 -18.225 0 0 0
175.997 -56.8343 -18.054 0 0 0
192.201 -51.2097 -18.079 0 0 0
173.919 -46.2222 -18.039 0 0 0
168.158 -36.9076 -18.007 0 0 0
153.867 -117.879 -17.8965 0 0 0
200.715 -99.1088 -17.945 0 0 0
202.303 -76.3686 -17.992 0 0 0
178.125 -60.9646 -17.852 0 0 0
178.013 -59.9826 -17.817 0 0 0
175.163 -58.9411 -17.823 0 0 0
171.117 -40.996 -17.679 0 0 0
174.172 -38.9699 -17.7 0 0 0
127.735 -50.9108 -15.993 0 0 0
172.984 -43.7565 -16.192 0 0 0
132.487 -37.7362 -16 0 0 0
174.607 -61.9528 -17.7875 0 0 0
171.596 -61.476 -17.7415 0 0 0
144.63 -124.978 -18.3535 0 0 0
144.63 -124.978 -18.3535 0 0 0
198.504 -111.964 -18.5957 0 0 0
165.57 -74.4608 -17.6717 0 0 0
194.326 -50.4523 -17.7339 0 0 0
199.169 -50.4696 -17.8502 0 0 0
