ply
format ascii 1.0
comment PCL generated
obj_info is_cyberware_data 0
obj_info is_mesh 0
obj_info is_warped 0
obj_info is_interlaced 0
obj_info num_cols 407
obj_info num_rows 1
obj_info echo_rgb_offset_x 0
obj_info echo_rgb_offset_y 0
obj_info echo_rgb_offset_z 0
obj_info echo_rgb_frontfocus 0.0
obj_info echo_rgb_backfocus 0.0
obj_info echo_rgb_pixelsize 0.0
obj_info echo_rgb_centerpixel 0
obj_info echo_frames 1
obj_info echo_lgincr 0.0
element vertex 407
property float x
property float y
property float z
property uchar red
property uchar green
property uchar blue
end_header
290.654 -104.209 -19.588 0 0 0
290.966 -96.8428 -19.633 0 0 0
317.152 -93.9815 -19.58 0 0 0
317.006 -92.833 -19.557 0 0 0
332.212 -68.9495 -19.635 0 0 0
305.277 -67.8812 -19.601 0 0 0
331.1 -67.965 -19.612 0 0 0
310.04 -60.9299 -19.528 0 0 0
309.172 -59.7229 -19.501 0 0 0
272.933 -54.7616 -19.536 0 0 0
290.642 -103.719 -19.378 0 0 0
298.358 -100.706 -19.23 0 0 0
306.025 -95.9379 -19.259 0 0 0
310.206 -92.9111 -19.277 0 0 0
312.066 -92.9627 -19.375 0 0 0
312.087 -91.9314 -19.33 0 0 0
303.112 -73.7876 -19.399 0 0 0
291.392 -71.9163 -19.234 0 0 0
300.025 -70.9353 -19.276 0 0 0
303.102 -70.9574 -19.376 0 0 0
304.254 -67.9958 -19.439 0 0 0
304.254 -67.9958 -19.439 0 0 0
282.068 -47.8036 -19.422 0 0 0
283.11 -47.923 -19.303 0 0 0
271.287 -42.8544 -19.252 0 0 0
285.191 -40.9867 -19.394 0 0 0
239.531 -102.432 -19.004 0 0 0
317.419 -92.8128 -18.938 0 0 0
313.286 -90.5956 -18.995 0 0 0
313.286 -90.5956 -18.995 0 0 0
313.286 -90.5956 -18.995 0 0 0
310.583 -88.6344 -19 0 0 0
291.464 -86.8765 -19.018 0 0 0
308.519 -83.7367 -18.992 0 0 0
291.582 -80.6075 -19.046 0 0 0
291.15 -79.9139 -18.9845 0 0 0
299.094 -75.9838 -19.152 0 0 0
298.34 -75.5075 -18.96 0 0 0
293.054 -73.684 -19.176 0 0 0
303.873 -73.3458 -18.923 0 0 0
303.873 -73.3458 -18.923 0 0 0
303.873 -73.3458 -18.923 0 0 0
299.091 -70.8391 -18.923 0 0 0
300.055 -70.3374 -18.939 0 0 0
285.496 -68.6849 -19.154 0 0 0
303.951 -67.9288 -18.905 0 0 0
303.951 -67.9288 -18.905 0 0 0
303.951 -67.9288 -18.905 0 0 0
331.158 -67.5196 -18.989 0 0 0
291.807 -67.4094 -18.986 0 0 0
267.152 -55.0374 -19.072 0 0 0
266.751 -53.2413 -19.057 0 0 0
288.587 -52.9254 -18.976 0 0 0
280.154 -50.5182 -18.978 0 0 0
279.015 -49.9609 -19.187 0 0 0
283.576 -47.9316 -18.962 0 0 0
283.576 -47.9316 -18.962 0 0 0
274.461 -46.2801 -18.958 0 0 0
271.336 -42.1273 -18.96 0 0 0
269.026 -41.9497 -19.189 0 0 0
284.88 -40.4594 -18.983 0 0 0
270.155 -40.0722 -19.062 0 0 0
264.158 -36.9409 -19.142 0 0 0
290.088 -103.944 -18.834 0 0 0
291.088 -103.964 -18.825 0 0 0
293.004 -100.933 -18.811 0 0 0
298.09 -100.969 -18.869 0 0 0
244.068 -99.945 -18.867 0 0 0
287.04 -96.962 -18.721 0 0 0
291.044 -96.9322 -18.807 0 0 0
299.053 -94.9618 -18.618 0 0 0
287.055 -93.9452 -18.619 0 0 0
308.26 -92.7605 -18.754 0 0 0
308.26 -92.7605 -18.754 0 0 0
298.088 -91.9734 -18.667 0 0 0
298.088 -91.9734 -18.667 0 0 0
291.122 -85.9738 -18.723 0 0 0
222.009 -82.8188 -18.795 0 0 0
300.042 -75.9551 -18.834 0 0 0
283.033 -68.9253 -18.861 0 0 0
245.097 -67.9662 -18.619 0 0 0
275.201 -60.9983 -18.817 0 0 0
309.045 -59.7787 -18.825 0 0 0
309.045 -59.7787 -18.825 0 0 0
274.004 -55.9733 -18.825 0 0 0
273.007 -54.9488 -18.846 0 0 0
273.007 -54.9488 -18.846 0 0 0
267.127 -53.9641 -18.816 0 0 0
263.283 -36.8767 -18.731 0 0 0
263.283 -36.8767 -18.731 0 0 0
263.283 -36.8767 -18.731 0 0 0
257.055 -35.9507 -18.875 0 0 0
247.278 -34.9291 -18.88 0 0 0
247.278 -34.9291 -18.88 0 0 0
260.166 -105.262 -18.316 0 0 0
256.108 -101.981 -18.367 0 0 0
270.157 -101.873 -18.346 0 0 0
271.143 -101.942 -18.438 0 0 0
278.128 -99.9568 -18.59 0 0 0
253.026 -97.9527 -18.314 0 0 0
281.06 -92.9701 -18.356 0 0 0
284.063 -92.9319 -18.569 0 0 0
248.134 -79.9599 -18.578 0 0 0
248.083 -78.9511 -18.547 0 0 0
260.151 -75.9334 -18.356 0 0 0
261.106 -74.7856 -18.359 0 0 0
258.005 -72.8219 -18.576 0 0 0
273.013 -71.9302 -18.37 0 0 0
274.201 -70.8909 -18.567 0 0 0
271.076 -69.9623 -18.348 0 0 0
218.206 -67.9154 -18.394 0 0 0
274.162 -67.9611 -18.549 0 0 0
217.044 -66.9825 -18.401 0 0 0
259.085 -63.94 -18.523 0 0 0
271.135 -63.9967 -18.439 0 0 0
229.058 -61.9505 -18.457 0 0 0
230.163 -61.9102 -18.47 0 0 0
230.082 -59.9118 -18.473 0 0 0
223.092 -56.9521 -18.353 0 0 0
250.076 -56.9669 -18.444 0 0 0
238.067 -49.9543 -18.416 0 0 0
237.039 -48.9692 -18.394 0 0 0
243.039 -48.9183 -18.445 0 0 0
244.125 -48.9512 -18.482 0 0 0
243.104 -47.9584 -18.503 0 0 0
253.155 -47.9005 -18.59 0 0 0
253.155 -47.9005 -18.59 0 0 0
229.027 -46.9993 -18.339 0 0 0
233.075 -46.9804 -18.377 0 0 0
232.069 -45.966 -18.404 0 0 0
233.183 -44.8925 -18.503 0 0 0
236.102 -39.9376 -18.527 0 0 0
236.102 -39.9376 -18.527 0 0 0
227.389 -37.8289 -18.353 0 0 0
230.107 -35.9596 -18.341 0 0 0
260.17 -104.952 -18.228 0 0 0
268.036 -102.969 -18.149 0 0 0
258.216 -101.941 -18.183 0 0 0
255.135 -99.9804 -18.285 0 0 0
266.269 -98.3636 -18.05 0 0 0
257.012 -97.8514 -18.011 0 0 0
271.006 -97.8958 -18.222 0 0 0
271.006 -97.8958 -18.222 0 0 0
253.127 -95.953 -18.295 0 0 0
254.089 -95.9779 -18.189 0 0 0
271.776 -94.4989 -18.028 0 0 0
277.083 -93.9103 -18.179 0 0 0
280.217 -90.8404 -18.228 0 0 0
254.057 -89.9677 -18.294 0 0 0
255.005 -87.9435 -18.221 0 0 0
255 -85.8735 -18.289 0 0 0
257.143 -83.9725 -18.21 0 0 0
259.023 -80.9348 -18.251 0 0 0
259.027 -79.9148 -18.283 0 0 0
272.166 -78.9521 -18.138 0 0 0
271.009 -74.5738 -18.275 0 0 0
271.231 -73.9883 -18.286 0 0 0
223.128 -43.9706 -18.196 0 0 0
224.084 -42.9735 -18.18 0 0 0
226.153 -41.8769 -18.242 0 0 0
264.126 -104.85 -17.875 0 0 0
264.126 -104.85 -17.875 0 0 0
259.251 -104.437 -17.929 0 0 0
259.251 -104.437 -17.929 0 0 0
272.306 -103.956 -17.9535 0 0 0
272.306 -103.956 -17.9535 0 0 0
262.271 -100.993 -17.848 0 0 0
262.09 -99.981 -17.705 0 0 0
278.362 -99.7191 -17.989 0 0 0
278.362 -99.7191 -17.989 0 0 0
257.007 -98.9304 -17.828 0 0 0
257.007 -98.9304 -17.828 0 0 0
266.017 -98.9579 -17.834 0 0 0
252.694 -97.4524 -17.814 0 0 0
252.694 -97.4524 -17.814 0 0 0
252.694 -97.4524 -17.814 0 0 0
275.617 -95.497 -17.97 0 0 0
277.012 -94.9112 -17.871 0 0 0
272.087 -93.9474 -17.707 0 0 0
272.087 -93.9474 -17.707 0 0 0
283.775 -93.3512 -17.977 0 0 0
283.775 -93.3512 -17.977 0 0 0
275.067 -92.9878 -17.895 0 0 0
280.687 -92.4227 -17.867 0 0 0
280.687 -92.4227 -17.867 0 0 0
257.051 -91.9526 -17.855 0 0 0
299.486 -91.9009 -17.994 0 0 0
254.231 -89.1976 -17.983 0 0 0
254.231 -89.1976 -17.983 0 0 0
259.019 -86.915 -17.823 0 0 0
275.045 -86.9589 -17.807 0 0 0
254.83 -85.1153 -17.984 0 0 0
247.541 -79.3774 -18 0 0 0
247.541 -79.3774 -18 0 0 0
262.312 -75.6382 -17.916 0 0 0
271.073 -74.9017 -17.769 0 0 0
270.528 -71.9773 -17.924 0 0 0
274.487 -71.8804 -17.978 0 0 0
270.329 -67.6346 -17.999 0 0 0
270.329 -67.6346 -17.999 0 0 0
274.491 -67.6693 -17.946 0 0 0
274.491 -67.6693 -17.946 0 0 0
218.051 -67.4695 -17.999 0 0 0
218.051 -67.4695 -17.999 0 0 0
273.971 -64.7997 -17.765 0 0 0
228.191 -61.9984 -17.9605 0 0 0
228.191 -61.9984 -17.9605 0 0 0
276.026 -61.3561 -17.952 0 0 0
230.555 -59.9878 -17.987 0 0 0
243.779 -58.6912 -17.973 0 0 0
245.051 -58.4859 -17.996 0 0 0
245.051 -58.4859 -17.996 0 0 0
222.221 -56.1202 -17.85 0 0 0
222.221 -56.1202 -17.85 0 0 0
222.221 -56.1202 -17.85 0 0 0
247.868 -56.2369 -17.86 0 0 0
237.24 -50.167 -17.94 0 0 0
237.24 -50.167 -17.94 0 0 0
242.473 -49.454 -17.773 0 0 0
242.473 -49.454 -17.773 0 0 0
251.614 -48.8238 -17.973 0 0 0
239.585 -47.8349 -17.895 0 0 0
239.585 -47.8349 -17.895 0 0 0
244.179 -47.9946 -17.887 0 0 0
254.23 -47.7997 -17.981 0 0 0
228.68 -46.5209 -17.942 0 0 0
228.68 -46.5209 -17.942 0 0 0
218.549 -45.9373 -17.871 0 0 0
226.283 -41.0036 -17.9535 0 0 0
226.283 -41.0036 -17.9535 0 0 0
235.581 -40.3038 -17.885 0 0 0
236.166 -40.4766 -17.923 0 0 0
238.031 -39.8251 -17.994 0 0 0
224.461 -39.4459 -17.857 0 0 0
226.629 -38.2301 -17.95 0 0 0
228.979 -36.1452 -17.996 0 0 0
273.041 -89.9744 -17.691 0 0 0
258.648 -63.892 -17.543 0 0 0
274.093 -61.9393 -17.669 0 0 0
232.546 -46.5508 -17.693 0 0 0
234.033 -45.9903 -17.629 0 0 0
234.033 -45.9903 -17.629 0 0 0
261.44 -97.0449 -16.9635 0 0 0
261.587 -91.3652 -16.975 0 0 0
312.087 -91.9314 -19.33 0 0 0
305.472 -70.8524 -19.727 0 0 0
305.472 -70.8524 -19.727 0 0 0
332.16 -69.9892 -19.715 0 0 0
302.182 -68.9443 -19.386 0 0 0
331.054 -68.9423 -19.645 0 0 0
305.277 -67.8812 -19.601 0 0 0
309.013 -61.9687 -19.479 0 0 0
310.073 -61.9547 -19.477 0 0 0
280.134 -51.959 -19.278 0 0 0
289.007 -102.98 -18.882 0 0 0
261.963 -100.935 -18.8955 0 0 0
299.053 -94.9618 -18.618 0 0 0
317.472 -93.0264 -18.929 0 0 0
298.141 -92.9801 -18.697 0 0 0
291.15 -79.9139 -18.9845 0 0 0
300.071 -75.9688 -18.995 0 0 0
300.055 -70.3374 -18.939 0 0 0
300.055 -70.3374 -18.939 0 0 0
273.366 -69.7261 -18.663 0 0 0
273.366 -69.7261 -18.663 0 0 0
303.951 -67.9288 -18.905 0 0 0
331.988 -67.9947 -18.8785 0 0 0
331.988 -67.9947 -18.8785 0 0 0
275.044 -62.9873 -18.786 0 0 0
274.042 -60.9167 -18.686 0 0 0
307.826 -60.3607 -18.923 0 0 0
274.089 -59.9517 -18.814 0 0 0
309.045 -59.7787 -18.825 0 0 0
275.117 -58.935 -18.862 0 0 0
254.13 -49.9328 -18.61 0 0 0
283.576 -47.9316 -18.962 0 0 0
247.091 -33.9974 -18.796 0 0 0
247.091 -33.9974 -18.796 0 0 0
271.143 -101.942 -18.438 0 0 0
271.143 -101.942 -18.438 0 0 0
272.152 -101.972 -18.536 0 0 0
255.12 -100.971 -18.385 0 0 0
253.056 -99.9227 -18.478 0 0 0
253.036 -98.9328 -18.38 0 0 0
253.239 -94.882 -18.324 0 0 0
253.239 -94.882 -18.324 0 0 0
255.008 -86.9435 -18.249 0 0 0
259.031 -78.9747 -18.313 0 0 0
272.025 -73.933 -18.349 0 0 0
230.163 -61.9102 -18.47 0 0 0
244.13 -59.9831 -18.461 0 0 0
243.044 -50.9776 -18.487 0 0 0
234.012 -48.9218 -18.412 0 0 0
231.083 -46.9109 -18.357 0 0 0
243.101 -46.9901 -18.472 0 0 0
234.101 -43.9681 -18.415 0 0 0
236.119 -41.9683 -18.524 0 0 0
236.062 -38.9483 -18.523 0 0 0
231.064 -34.9837 -18.361 0 0 0
231.064 -34.9837 -18.361 0 0 0
262.09 -99.981 -17.705 0 0 0
258.015 -98.9397 -17.811 0 0 0
280.687 -92.4227 -17.867 0 0 0
280.687 -92.4227 -17.867 0 0 0
273.208 -87.7807 -17.711 0 0 0
274.008 -87.9233 -17.646 0 0 0
254.83 -85.1153 -17.984 0 0 0
261.13 -84.9532 -17.649 0 0 0
291.487 -79.5261 -17.594 0 0 0
249.128 -79.0103 -17.9805 0 0 0
273.347 -71.7887 -17.908 0 0 0
273.347 -71.7887 -17.908 0 0 0
270.251 -68.9298 -17.918 0 0 0
270.251 -68.9298 -17.918 0 0 0
270.251 -68.9298 -17.918 0 0 0
258.648 -63.892 -17.543 0 0 0
230.078 -60.923 -17.982 0 0 0
230.555 -59.9878 -17.987 0 0 0
273.511 -59.4834 -17.629 0 0 0
249.37 -55.877 -17.916 0 0 0
232.546 -46.5508 -17.693 0 0 0
232.546 -46.5508 -17.693 0 0 0
236.131 -39.998 -17.837 0 0 0
236.131 -39.998 -17.837 0 0 0
291.438 -80.1555 -17.135 0 0 0
273.669 -61.2003 -16.819 0 0 0
251.059 -51.0705 -17.027 0 0 0
332.035 -70.9823 -19.743 0 0 0
257.203 -105.043 -18.4405 0 0 0
257.203 -105.043 -18.4405 0 0 0
269.032 -104.512 -18.354 0 0 0
271.868 -101.28 -18.4463 0 0 0
273.125 -101.461 -18.501 0 0 0
251.121 -93.9972 -18.477 0 0 0
251.054 -91.9083 -18.517 0 0 0
252.579 -90.9675 -18.401 0 0 0
257.126 -80.9926 -18.304 0 0 0
257.12 -79.9626 -18.34 0 0 0
258.656 -77.4501 -18.357 0 0 0
331.988 -67.9947 -18.8785 0 0 0
275.176 -63.9684 -18.771 0 0 0
278.067 -63.9903 -18.895 0 0 0
278.067 -63.9903 -18.895 0 0 0
307.995 -59.9795 -18.966 0 0 0
234.539 -42.9677 -18.4785 0 0 0
233.168 -35.4498 -18.514 0 0 0
246.392 -35.6243 -18.6713 0 0 0
234.565 -33.9496 -18.469 0 0 0
239.009 -33.9959 -18.535 0 0 0
263.062 -98.9612 -17.706 0 0 0
263.062 -98.9612 -17.706 0 0 0
252.694 -97.4524 -17.814 0 0 0
254.211 -96.9661 -17.972 0 0 0
269.058 -93.9904 -17.762 0 0 0
269.162 -92.9456 -17.681 0 0 0
281.127 -92.0689 -17.939 0 0 0
281.127 -92.0689 -17.939 0 0 0
281.127 -92.0689 -17.939 0 0 0
299.486 -91.9009 -17.994 0 0 0
299.486 -91.9009 -17.994 0 0 0
273.208 -87.7807 -17.711 0 0 0
273.208 -87.7807 -17.711 0 0 0
272.004 -86.7203 -17.671 0 0 0
261.13 -84.9532 -17.649 0 0 0
261.13 -84.9532 -17.649 0 0 0
261.13 -84.9532 -17.649 0 0 0
266.018 -80.9608 -17.732 0 0 0
229.139 -60.8849 -17.935 0 0 0
249.06 -56.4028 -17.998 0 0 0
249.06 -56.4028 -17.998 0 0 0
222.662 -56.1333 -17.9165 0 0 0
244.119 -48.9328 -17.892 0 0 0
244.119 -48.9328 -17.892 0 0 0
252.811 -48.9254 -17.9915 0 0 0
308.577 -102.205 -19.4058 0 0 0
308.577 -102.205 -19.4058 0 0 0
250.565 -104.458 -18.8095 0 0 0
250.565 -104.458 -18.8095 0 0 0
272.585 -101.905 -18.4749 0 0 0
272.585 -101.905 -18.4749 0 0 0
277.313 -102.21 -18.6562 0 0 0
255.417 -97.4455 -17.9243 0 0 0
260.604 -97.3932 -17.4252 0 0 0
250.546 -92.4537 -18.5312 0 0 0
279.729 -92.26 -18.0879 0 0 0
298.667 -92.3123 -18.4127 0 0 0
298.667 -92.3123 -18.4127 0 0 0
298.667 -92.3123 -18.4127 0 0 0
265.303 -80.4594 -17.7927 0 0 0
267.59 -80.4628 -17.7977 0 0 0
272.429 -63.5507 -18.4078 0 0 0
274.63 -61.4228 -18.2926 0 0 0
248.65 -58.3721 -18.2114 0 0 0
231.57 -37.4435 -18.4537 0 0 0
233.802 -37.4308 -18.5339 0 0 0
233.802 -37.4308 -18.5339 0 0 0
314.465 -101.782 -19.5525 0 0 0
314.465 -101.782 -19.5525 0 0 0
247.202 -103.341 -18.8007 0 0 0
285.093 -102.56 -18.9563 0 0 0
285.093 -102.56 -18.9563 0 0 0
266.427 -88.8831 -17.3548 0 0 0
299.943 -88.8442 -18.7873 0 0 0
290.446 -69.5412 -19.0811 0 0 0
332.231 -68.2282 -18.9183 0 0 0
271.157 -64.8516 -18.4264 0 0 0
247.221 -55.2969 -18.3556 0 0 0
