ply
format ascii 1.0
comment PCL generated
obj_info is_cyberware_data 0
obj_info is_mesh 0
obj_info is_warped 0
obj_info is_interlaced 0
obj_info num_cols 64
obj_info num_rows 1
obj_info echo_rgb_offset_x 0
obj_info echo_rgb_offset_y 0
obj_info echo_rgb_offset_z 0
obj_info echo_rgb_frontfocus 0.0
obj_info echo_rgb_backfocus 0.0
obj_info echo_rgb_pixelsize 0.0
obj_info echo_rgb_centerpixel 0
obj_info echo_frames 1
obj_info echo_lgincr 0.0
element vertex 64
property float x
property float y
property float z
property uchar red
property uchar green
property uchar blue
end_header
78.0788 -105.968 -17.519 0 0 0
57.1088 -47.9922 -16.919 0 0 0
57.1088 -47.9922 -16.919 0 0 0
85.6977 -94.0191 -16.79 0 0 0
41.533 -51.8782 -15.526 0 0 0
37.7432 -135.679 -18.617 0 0 0
78.3974 -106.427 -18.496 0 0 0
64.4036 -84.8112 -17.724 0 0 0
41.0506 -50.933 -16.98 0 0 0
41.0506 -50.933 -16.98 0 0 0
45.2204 -113.401 -16.216 0 0 0
45.2204 -113.401 -16.216 0 0 0
56.9154 -47.9651 -15.83 0 0 0
64.2308 -84.6221 -15.594 0 0 0
41.2393 -50.6725 -14.978 0 0 0
27.1801 -5.7682 -17.605 0 0 0
29.1232 -11.9361 -16.865 0 0 0
29.1232 -11.9361 -16.865 0 0 0
45.1436 -9.97058 -16.699 0 0 0
44.1192 -0.963886 -16.709 0 0 0
44.1192 -0.963886 -16.709 0 0 0
-0.964949 26.0073 -16.416 0 0 0
-14.8942 32.0454 -16.331 0 0 0
-11.9183 45.0518 -15.973 0 0 0
32.0641 45.0318 -15.986 0 0 0
-17.2919 51.1934 -16.007 0 0 0
-14.7579 31.7467 -15.775 0 0 0
-14.7579 31.7467 -15.775 0 0 0
44.415 31.7038 -15.879 0 0 0
-0.774247 34.5781 -15.832 0 0 0
61.0788 47.0543 -15.831 0 0 0
60.1351 55.1291 -15.727 0 0 0
28.8185 -12.4291 -15.412 0 0 0
-8.48547 7.09746 -15.582 0 0 0
80.0466 58.2408 -15.463 0 0 0
80.0466 58.2408 -15.463 0 0 0
18.334 64.0363 -15.479 0 0 0
18.334 64.0363 -15.479 0 0 0
-27.8168 70.0394 -15.314 0 0 0
-28.6706 72.0887 -15.265 0 0 0
31.8703 45.3283 -14.96 0 0 0
60.5854 48.0782 -14.915 0 0 0
-29.2795 72.2023 -14.975 0 0 0
63.8158 24.1052 -17.866 0 0 0
44.0599 -10.9531 -16.709 0 0 0
45.1711 -10.9903 -16.683 0 0 0
45.0494 0.021078 -16.671 0 0 0
61.0554 45.0476 -15.883 0 0 0
28.8185 -12.4291 -15.412 0 0 0
28.8185 -12.4291 -15.412 0 0 0
44.1061 1.03103 -15.411 0 0 0
-8.48547 7.09746 -15.582 0 0 0
-1.42665 25.3011 -15.363 0 0 0
44.6636 -7.98188 -14.725 0 0 0
44.6636 -7.98188 -14.725 0 0 0
-11.4456 45.0287 -14.359 0 0 0
44.0418 -11.4529 -16.7145 0 0 0
44.9128 -13.5844 -12.7483 0 0 0
44.8047 -12.4525 -12.427 0 0 0
60.7906 44.3486 -13.182 0 0 0
-26.4226 45.581 -16.0029 0 0 0
-26.4226 45.581 -16.0029 0 0 0
16.6752 45.5205 -15.9676 0 0 0
50.408 45.5153 -15.9044 0 0 0
