ply
format ascii 1.0
comment PCL generated
obj_info is_cyberware_data 0
obj_info is_mesh 0
obj_info is_warped 0
obj_info is_interlaced 0
obj_info num_cols 1354
obj_info num_rows 1
obj_info echo_rgb_offset_x 0
obj_info echo_rgb_offset_y 0
obj_info echo_rgb_offset_z 0
obj_info echo_rgb_frontfocus 0.0
obj_info echo_rgb_backfocus 0.0
obj_info echo_rgb_pixelsize 0.0
obj_info echo_rgb_centerpixel 0
obj_info echo_frames 1
obj_info echo_lgincr 0.0
element vertex 1354
property float x
property float y
property float z
property uchar red
property uchar green
property uchar blue
end_header
210.456 90.5224 -24.934 0 0 0
219 92.3031 -24.929 0 0 0
218.032 95.1602 -24.641 0 0 0
214.277 94.0348 -24.581 0 0 0
214.277 94.0348 -24.581 0 0 0
219.08 92.6325 -23.849 0 0 0
213.393 91.1263 -22.994 0 0 0
266.254 94.0392 -19.266 0 0 0
268.036 97.1586 -19.31 0 0 0
268.036 97.1586 -19.31 0 0 0
269.128 100.017 -19.299 0 0 0
270.018 101.103 -19.324 0 0 0
272.102 109.244 -19.269 0 0 0
268.823 97.4769 -18.998 0 0 0
268.823 97.4769 -18.998 0 0 0
276.417 99.1836 -18.967 0 0 0
269.815 100.718 -18.999 0 0 0
272.076 119.051 -18.835 0 0 0
249.164 95.271 -18.566 0 0 0
268.13 120.025 -18.367 0 0 0
243.011 91.0275 -18.221 0 0 0
244.159 92.0568 -18.293 0 0 0
250.072 96.0315 -18.248 0 0 0
246.119 97.048 -18.128 0 0 0
249.085 98.0703 -18.282 0 0 0
254.422 100.165 -18.207 0 0 0
254.015 104.858 -18.052 0 0 0
261.042 106.224 -18.26 0 0 0
261.208 107.056 -18.214 0 0 0
264.012 112.072 -18.272 0 0 0
264.15 113.206 -18.214 0 0 0
267.207 118.153 -18.287 0 0 0
242.091 93.015 -17.824 0 0 0
242.253 94.0021 -17.765 0 0 0
260.443 106.113 -17.907 0 0 0
263.014 115.03 -17.81 0 0 0
263.192 117.042 -17.76 0 0 0
267.626 118.595 -17.997 0 0 0
240.065 91.0821 -17.685 0 0 0
240.065 91.0821 -17.685 0 0 0
246.63 100.013 -17.636 0 0 0
246.63 100.013 -17.636 0 0 0
243.422 96.0193 -17.208 0 0 0
239.17 91.0442 -16.632 0 0 0
237.097 95.108 -16.238 0 0 0
243.263 98.0911 -16.305 0 0 0
237.418 98.5809 -16.413 0 0 0
242.602 100.515 -15.939 0 0 0
243.862 106.06 -16.001 0 0 0
244.178 107.149 -15.987 0 0 0
239.109 101.113 -15.666 0 0 0
239.109 101.113 -15.666 0 0 0
241.17 103.009 -15.842 0 0 0
245.113 110.031 -15.693 0 0 0
235.471 92.2825 -15.322 0 0 0
236.233 97.713 -15.348 0 0 0
243.566 97.7631 -15.45 0 0 0
242.534 105.109 -15.397 0 0 0
234.609 91.6067 -15.07 0 0 0
237.054 94.4998 -14.988 0 0 0
237.054 94.4998 -14.988 0 0 0
237.104 97.0147 -14.852 0 0 0
237.008 98.0597 -14.751 0 0 0
243.299 98.1052 -14.931 0 0 0
239.056 101.026 -14.992 0 0 0
239.033 102.014 -14.763 0 0 0
240.076 102.03 -14.992 0 0 0
231.812 103.494 -14.798 0 0 0
243.092 105.817 -14.99 0 0 0
235.194 93.0242 -14.646 0 0 0
231.887 95.1546 -14.422 0 0 0
236.183 104.003 -14.59 0 0 0
236.183 104.003 -14.59 0 0 0
233.753 91.086 -14.375 0 0 0
236.025 99.0061 -13.998 0 0 0
235.052 103.946 -13.647 0 0 0
214.749 91.06 -13.079 0 0 0
223.563 93.2981 -13.144 0 0 0
214.24 98.1766 -12.904 0 0 0
230.127 92.0334 -12.64 0 0 0
230.127 92.0334 -12.64 0 0 0
228.267 93.6726 -12.678 0 0 0
228.267 93.6726 -12.678 0 0 0
217.511 98.1484 -12.635 0 0 0
215.021 101.414 -12.795 0 0 0
221.151 94.0239 -12.325 0 0 0
221.151 94.0239 -12.325 0 0 0
225.124 95.0964 -12.44 0 0 0
227.325 96.0279 -12.418 0 0 0
222.157 98.3321 -12.485 0 0 0
215.04 98.7565 -12.461 0 0 0
220.087 101.122 -12.443 0 0 0
213.334 93.011 -12.026 0 0 0
222.043 93.1143 -12.296 0 0 0
228.104 94.0068 -12.181 0 0 0
219.096 95.2653 -12.242 0 0 0
219.126 92.5581 -11.999 0 0 0
217.014 93.0464 -11.883 0 0 0
229.008 93.0137 -12 0 0 0
224.035 94.2989 -11.995 0 0 0
224.035 94.2989 -11.995 0 0 0
215.01 95.0125 -11.856 0 0 0
218.062 95.0006 -11.761 0 0 0
226.066 96.0112 -11.98 0 0 0
227.117 96.2179 -11.989 0 0 0
213.941 97.6636 -11.994 0 0 0
214.519 98.003 -11.983 0 0 0
217.075 98.5216 -12 0 0 0
217.075 98.5216 -12 0 0 0
220.298 100.076 -11.973 0 0 0
220.298 100.076 -11.973 0 0 0
216.281 92.1707 -10.986 0 0 0
213.393 91.1263 -22.994 0 0 0
244.008 91.0641 -18.327 0 0 0
246.214 94.0569 -18.329 0 0 0
249.085 98.0703 -18.282 0 0 0
239.361 91.0562 -17.659 0 0 0
240.065 91.0821 -17.685 0 0 0
242.327 95.0436 -17.435 0 0 0
242.327 95.0436 -17.435 0 0 0
262.052 115.047 -17.738 0 0 0
262.053 117.061 -17.683 0 0 0
263.471 118.152 -17.775 0 0 0
236.65 95.8751 -16.321 0 0 0
244.05 97.0501 -16.736 0 0 0
245.18 98.0171 -16.798 0 0 0
237.418 98.5809 -16.413 0 0 0
245.07 107.025 -16.383 0 0 0
235.379 91.0319 -16.033 0 0 0
235.379 91.0319 -16.033 0 0 0
236.031 91.6015 -15.997 0 0 0
241.607 103.222 -16.07 0 0 0
245.113 110.031 -15.693 0 0 0
242.139 104.006 -15.294 0 0 0
242.139 104.006 -15.294 0 0 0
237.054 94.4998 -14.988 0 0 0
235.344 95.0007 -14.453 0 0 0
235.344 95.0007 -14.453 0 0 0
243.299 98.1052 -14.931 0 0 0
235.06 102.023 -14.64 0 0 0
239.033 102.014 -14.763 0 0 0
239.033 102.014 -14.763 0 0 0
239.033 102.014 -14.763 0 0 0
242.046 107.049 -14.676 0 0 0
224.653 95.2099 -14.115 0 0 0
213.98 90.7072 -13.551 0 0 0
217.627 91.0284 -13.321 0 0 0
214.173 98.1782 -13.286 0 0 0
222.027 98.2862 -13.684 0 0 0
222.027 98.2862 -13.684 0 0 0
236.073 105.012 -13.476 0 0 0
236.073 105.012 -13.476 0 0 0
223.563 93.2981 -13.144 0 0 0
229.888 94.6624 -13.138 0 0 0
226.189 98.2138 -13.125 0 0 0
221.104 101.226 -12.712 0 0 0
221.104 101.226 -12.712 0 0 0
215.021 101.414 -12.795 0 0 0
215.021 101.414 -12.795 0 0 0
220.069 93.09 -12.265 0 0 0
221.151 94.0239 -12.325 0 0 0
228.154 95.0881 -12.207 0 0 0
211.199 96.0168 -12.477 0 0 0
229.046 92.0344 -11.993 0 0 0
215.069 94.0343 -11.833 0 0 0
227.117 96.2179 -11.989 0 0 0
213.557 99.1424 -11.989 0 0 0
220.298 100.076 -11.973 0 0 0
220.298 100.076 -11.973 0 0 0
212.886 93.0067 -10.34 0 0 0
224.238 92.334 -10.005 0 0 0
211.762 90.607 -24.541 0 0 0
245.05 90.5638 -18.4305 0 0 0
248.003 95.0313 -18.359 0 0 0
267.054 113.031 -18.453 0 0 0
272.076 119.051 -18.835 0 0 0
258.612 111.014 -17.7135 0 0 0
262.053 117.061 -17.683 0 0 0
262.053 117.061 -17.683 0 0 0
266.96 120.085 -17.9705 0 0 0
242.061 101.02 -16.311 0 0 0
241.906 102.348 -16.1499 0 0 0
241.906 102.348 -16.1499 0 0 0
245.074 106.089 -16.391 0 0 0
240.646 107.032 -14.6755 0 0 0
242.231 108.029 -14.798 0 0 0
234.581 96.5301 -13.8127 0 0 0
222.027 98.2862 -13.684 0 0 0
222.027 98.2862 -13.684 0 0 0
229.955 94.3602 -12.9505 0 0 0
210.617 96.5275 -12.518 0 0 0
227.325 96.0279 -12.418 0 0 0
210.571 98.0759 -12.4935 0 0 0
221.179 102.529 -12.797 0 0 0
228.571 92.0313 -11.9685 0 0 0
274.667 94.5685 -19.9895 0 0 0
279.609 118.621 -19.9671 0 0 0
257.815 92.5381 -18.5976 0 0 0
231.887 95.1546 -14.422 0 0 0
240.335 94.549 -16.6702 0 0 0
238.643 106.11 -14.479 0 0 0
242.231 108.029 -14.798 0 0 0
226.642 92.5839 -12.0975 0 0 0
233.651 92.5109 -14.0255 0 0 0
233.651 92.5109 -14.0255 0 0 0
212.598 94.6952 -12.139 0 0 0
224.483 99.6432 -13.0524 0 0 0
237.141 106.013 -14.365 0 0 0
224.498 92.4324 -11.4729 0 0 0
227.662 91.3313 -23.566 0 0 0
294.632 103.745 -21.5906 0 0 0
294.929 107.654 -21.6018 0 0 0
280.793 117.538 -20.1466 0 0 0
280.793 117.538 -20.1466 0 0 0
256.776 112.37 -17.4965 0 0 0
261.621 112.651 -17.881 0 0 0
227.876 102.991 -13.3595 0 0 0
216.135 77.4687 -24.8 0 0 0
216.923 81.6357 -24.792 0 0 0
216.923 81.6357 -24.792 0 0 0
215.014 83.1467 -24.755 0 0 0
221.956 89.6531 -24.639 0 0 0
216.952 87.2554 -24.59 0 0 0
215.739 80.0773 -23.978 0 0 0
213.001 87.3037 -23.75 0 0 0
211.107 67.0169 -22.818 0 0 0
218.662 71.1859 -22.893 0 0 0
223.324 75.2068 -22.909 0 0 0
224.126 79.1662 -22.973 0 0 0
214.518 86.4406 -22.924 0 0 0
214.518 86.4406 -22.924 0 0 0
213.6 68.4599 -22.69 0 0 0
216.117 69.1338 -22.572 0 0 0
220.206 86.1304 -22.74 0 0 0
227.204 87.0123 -22.653 0 0 0
227.204 87.0123 -22.653 0 0 0
219.113 88.8179 -22.503 0 0 0
213.018 66.8031 -22.207 0 0 0
220.445 73.4635 -22.496 0 0 0
221.466 73.5726 -22.357 0 0 0
222.11 75.3627 -22.35 0 0 0
217.146 85.1346 -22.486 0 0 0
214.503 85.4002 -22.44 0 0 0
216.015 69.5287 -21.901 0 0 0
214.576 86.645 -21.954 0 0 0
226.697 86.4054 -21.987 0 0 0
226.697 86.4054 -21.987 0 0 0
217.659 71.7051 -21.671 0 0 0
218.171 82.6297 -21.659 0 0 0
219.238 84.201 -21.656 0 0 0
213.602 84.6475 -21.895 0 0 0
307.145 31.006 -21.403 0 0 0
295.234 44.2659 -21.303 0 0 0
214.303 82.5139 -21.351 0 0 0
220.305 84.1704 -21.54 0 0 0
306.037 32.0697 -21.183 0 0 0
293.158 41.2497 -21.216 0 0 0
212.047 64.8711 -21.074 0 0 0
280.289 31.3619 -20.712 0 0 0
280.289 31.3619 -20.712 0 0 0
278.074 41.0632 -20.78 0 0 0
214.753 66.0735 -20.871 0 0 0
220.921 70.4028 -21 0 0 0
220.921 70.4028 -21 0 0 0
220.921 70.4028 -21 0 0 0
215.446 83.0584 -20.921 0 0 0
215.446 83.0584 -20.921 0 0 0
215.446 83.0584 -20.921 0 0 0
300.352 -6.72233 -19.856 0 0 0
300.352 -6.72233 -19.856 0 0 0
260.028 -22.993 -19.748 0 0 0
289.086 -19.9288 -19.71 0 0 0
289.086 -19.9288 -19.71 0 0 0
277.32 33.2512 -19.578 0 0 0
274.396 33.6557 -19.79 0 0 0
274.396 33.6557 -19.79 0 0 0
268.003 -29.9052 -19.239 0 0 0
261.2 -27.9564 -19.264 0 0 0
268.142 -27.9382 -19.214 0 0 0
270.035 -22.9267 -19.394 0 0 0
271.138 -20.9843 -19.431 0 0 0
270.206 -18.8804 -19.47 0 0 0
259.034 -7.87905 -19.287 0 0 0
259.122 -2.95102 -19.367 0 0 0
246.287 7.08976 -19.295 0 0 0
246.287 7.08976 -19.295 0 0 0
245.17 29.0086 -19.236 0 0 0
246.136 39 -19.211 0 0 0
225.342 70.2411 -19.352 0 0 0
256.458 80.0425 -19.235 0 0 0
269.169 -28.5402 -18.902 0 0 0
262.254 -25.0775 -18.971 0 0 0
271.751 -24.7509 -18.964 0 0 0
271.468 -23.7811 -18.973 0 0 0
260.151 -22.9855 -18.985 0 0 0
257.027 -18.9274 -19.178 0 0 0
269.965 -18.719 -18.98 0 0 0
245.982 -15.1902 -19.117 0 0 0
245.982 -15.1902 -19.117 0 0 0
247.052 -10.9314 -18.913 0 0 0
246.043 -10.5502 -19.199 0 0 0
259.548 -7.99806 -18.998 0 0 0
259.548 -7.99806 -18.998 0 0 0
259.232 -3.44007 -18.984 0 0 0
250.48 11.9829 -18.987 0 0 0
250.48 11.9829 -18.987 0 0 0
250.48 11.9829 -18.987 0 0 0
246.052 13.0182 -19.0223 0 0 0
232.022 29.6838 -19.005 0 0 0
232.022 29.6838 -19.005 0 0 0
244.454 29.4298 -18.965 0 0 0
247.225 38.5007 -18.994 0 0 0
247.225 38.5007 -18.994 0 0 0
248.006 57.0617 -19.166 0 0 0
244.692 62.4876 -19.038 0 0 0
260.304 83.5192 -18.989 0 0 0
255.802 83.8117 -19.186 0 0 0
262.034 -27.9193 -18.761 0 0 0
248.065 -21.9779 -18.747 0 0 0
270.872 -21.7463 -18.858 0 0 0
246.002 -15.9902 -18.827 0 0 0
238.216 -9.9664 -18.708 0 0 0
245.005 -9.96831 -18.887 0 0 0
246.103 22.1699 -18.804 0 0 0
246.103 22.1699 -18.804 0 0 0
231.426 35.0211 -18.822 0 0 0
243.046 69.2498 -18.867 0 0 0
243.046 69.2498 -18.867 0 0 0
235.816 80.0425 -18.762 0 0 0
255.009 85.0158 -18.76 0 0 0
238.509 86.3317 -18.618 0 0 0
249.29 87.1751 -18.737 0 0 0
233.012 -32.8745 -18.306 0 0 0
244.423 -32.864 -18.453 0 0 0
240.22 -31.9986 -18.476 0 0 0
241.195 -31.9649 -18.393 0 0 0
246.121 -31.9822 -18.513 0 0 0
245.029 -30.9475 -18.443 0 0 0
244.359 -29.939 -18.407 0 0 0
243.204 -28.7987 -18.488 0 0 0
243.204 -28.7987 -18.488 0 0 0
240.365 -27.9229 -18.388 0 0 0
239.154 -24.9826 -18.348 0 0 0
240.175 -24.9761 -18.43 0 0 0
223.122 -1.93608 -18.492 0 0 0
225.027 9.05583 -18.376 0 0 0
225.027 9.05583 -18.376 0 0 0
227.072 28.055 -18.321 0 0 0
228.041 28.0473 -18.38 0 0 0
232.183 30.0515 -18.557 0 0 0
228.146 33.0133 -18.317 0 0 0
228.146 33.0133 -18.317 0 0 0
232.137 37.0487 -18.473 0 0 0
230.236 48.0876 -18.331 0 0 0
230.236 48.0876 -18.331 0 0 0
233.007 53.0716 -18.334 0 0 0
234.105 55.0792 -18.358 0 0 0
235.086 58.0258 -18.395 0 0 0
237.043 60.0103 -18.486 0 0 0
238.071 62.0469 -18.533 0 0 0
238.014 80.2672 -18.312 0 0 0
236.132 -31.9648 -18.269 0 0 0
229.28 -26.3052 -18.089 0 0 0
225.029 27.0592 -18.194 0 0 0
227.149 33.0284 -18.225 0 0 0
228.301 58.4741 -18.016 0 0 0
236.046 68.0192 -18.21 0 0 0
236.124 69.1604 -18.295 0 0 0
236.066 73.04 -18.266 0 0 0
236.032 75.0197 -18.25 0 0 0
237.121 78.0211 -18.253 0 0 0
236.943 83.058 -18.064 0 0 0
241.084 87.0412 -18.279 0 0 0
241.084 87.0412 -18.279 0 0 0
242.378 -31.8593 -17.769 0 0 0
247.267 -31.6744 -18 0 0 0
247.267 -31.6744 -18 0 0 0
235.415 -31.3707 -17.946 0 0 0
245.027 -30.902 -17.792 0 0 0
245.027 -30.902 -17.792 0 0 0
245.027 -30.902 -17.792 0 0 0
232.087 -29.9641 -17.788 0 0 0
232.087 -29.9641 -17.788 0 0 0
234.197 -28.983 -17.817 0 0 0
245.322 -28.5907 -17.996 0 0 0
245.322 -28.5907 -17.996 0 0 0
240.036 -27.8991 -17.884 0 0 0
241.087 -26.9523 -17.852 0 0 0
238.331 -24.8428 -17.986 0 0 0
238.148 -10.1715 -17.994 0 0 0
214.016 1.0235 -17.806 0 0 0
216.005 2.02558 -17.898 0 0 0
225.048 8.02458 -17.9185 0 0 0
226.369 9.00294 -17.994 0 0 0
221.04 27.0639 -17.778 0 0 0
227.691 28.0809 -17.911 0 0 0
227.691 28.0809 -17.911 0 0 0
223.046 31.0609 -17.841 0 0 0
227.035 48.0347 -17.796 0 0 0
234.096 54.5627 -17.945 0 0 0
231.047 56.0242 -17.747 0 0 0
232.089 56.0666 -17.748 0 0 0
232.089 56.0666 -17.748 0 0 0
234.008 58.0117 -17.918 0 0 0
236.033 61.0482 -17.759 0 0 0
236.107 72.4529 -17.999 0 0 0
233.177 73.0444 -17.808 0 0 0
235.149 80.0604 -17.836 0 0 0
237.351 80.0925 -17.864 0 0 0
237.351 80.0925 -17.864 0 0 0
236.205 82.0144 -17.717 0 0 0
239.021 89.0178 -17.745 0 0 0
240.862 -32.0381 -17.637 0 0 0
241.012 -31.9832 -17.5 0 0 0
227.07 33.1337 -17.528 0 0 0
229.54 62.1842 -17.585 0 0 0
233.073 65.0115 -17.673 0 0 0
234.111 67.2074 -17.661 0 0 0
233.488 69.0267 -17.592 0 0 0
237.459 84.5735 -17.697 0 0 0
237.401 86.0123 -17.573 0 0 0
216.783 -29.9167 -16.941 0 0 0
220.797 51.0966 -16.901 0 0 0
232.391 63.0291 -16.924 0 0 0
218.661 50.1656 -16.517 0 0 0
221.567 54.5031 -16.034 0 0 0
225.654 61.3487 -16.053 0 0 0
229.085 65.1732 -15.985 0 0 0
230.283 71.0431 -15.932 0 0 0
231.542 76.0377 -16.146 0 0 0
236.078 81.4365 -15.948 0 0 0
236.162 88.1546 -15.901 0 0 0
213.151 47.0336 -15.67 0 0 0
217.061 52.0734 -15.631 0 0 0
217.061 52.0734 -15.631 0 0 0
224.153 56.0242 -15.764 0 0 0
224.38 59.0489 -15.621 0 0 0
225.302 59.0182 -15.613 0 0 0
229.115 68.2661 -15.707 0 0 0
230.041 81.2309 -15.617 0 0 0
230.498 83.0183 -15.603 0 0 0
231.156 85.0963 -15.651 0 0 0
231.878 86.0246 -15.788 0 0 0
233.589 88.0275 -15.869 0 0 0
212.22 48.2882 -15.419 0 0 0
213.268 48.0142 -15.597 0 0 0
217.575 53.0221 -15.471 0 0 0
222.099 55.0796 -15.558 0 0 0
221.024 56.0553 -15.408 0 0 0
221.024 56.0553 -15.408 0 0 0
223.003 58.0271 -15.437 0 0 0
231.395 77.3549 -15.402 0 0 0
229.254 81.2591 -15.593 0 0 0
234.232 90.2576 -15.329 0 0 0
211.774 54.2366 -15.15 0 0 0
227.177 68.2009 -15.13 0 0 0
230.07 76.1488 -15.254 0 0 0
234.055 88.661 -15.17 0 0 0
215.134 47.2495 -14.989 0 0 0
217.479 52.2635 -14.99 0 0 0
217.479 52.2635 -14.99 0 0 0
222.13 57.4389 -14.991 0 0 0
221.175 59.0973 -14.739 0 0 0
226.097 61.9745 -14.9725 0 0 0
226.097 61.9745 -14.9725 0 0 0
228.128 64.0881 -14.979 0 0 0
228.128 64.0881 -14.979 0 0 0
229.116 66.3438 -14.985 0 0 0
230.029 70.5534 -14.998 0 0 0
232.148 76.057 -14.931 0 0 0
232.045 78.0161 -14.788 0 0 0
229.307 80.3096 -14.974 0 0 0
231.366 84.1752 -14.794 0 0 0
233.064 87.626 -14.961 0 0 0
211.119 47.9146 -14.497 0 0 0
211.119 47.9146 -14.497 0 0 0
211.076 50.1058 -14.619 0 0 0
210.625 52.129 -14.542 0 0 0
217.15 57.1687 -14.504 0 0 0
218.118 57.0057 -14.532 0 0 0
218.118 57.0057 -14.532 0 0 0
220.02 59.0014 -14.531 0 0 0
219.339 60.0547 -14.674 0 0 0
219.339 60.0547 -14.674 0 0 0
222.023 63.1737 -14.544 0 0 0
225.096 63.0797 -14.649 0 0 0
225.096 63.0797 -14.649 0 0 0
230.098 67.058 -14.456 0 0 0
228.328 81.1867 -14.579 0 0 0
232.293 87.0145 -14.686 0 0 0
229.76 76.0771 -14.276 0 0 0
212.209 49.9901 -13.855 0 0 0
223.124 61.5048 -13.961 0 0 0
211.009 54.0125 -13.738 0 0 0
214.449 81.5162 -13.557 0 0 0
212.128 60.0068 -12.626 0 0 0
214.15 61.0394 -12.679 0 0 0
219.031 62.447 -12.824 0 0 0
220.504 64.011 -12.654 0 0 0
220.504 64.011 -12.654 0 0 0
222.296 66.1062 -12.667 0 0 0
223.784 67.0647 -12.607 0 0 0
229.185 74.0376 -12.817 0 0 0
214.641 80.0514 -12.832 0 0 0
228.27 80.0919 -12.687 0 0 0
228.27 80.0919 -12.687 0 0 0
219.53 83.1517 -12.875 0 0 0
216.692 83.4032 -12.757 0 0 0
224.046 87.0667 -12.621 0 0 0
221.235 87.3281 -12.605 0 0 0
219.182 88.0694 -12.88 0 0 0
224.348 89.3048 -12.678 0 0 0
227.154 90.0169 -12.877 0 0 0
227.154 90.0169 -12.877 0 0 0
228.162 90.0132 -12.608 0 0 0
215.198 62.0356 -12.482 0 0 0
226.443 71.2659 -12.458 0 0 0
226.443 71.2659 -12.458 0 0 0
229.243 77.1637 -12.434 0 0 0
217.293 80.0973 -12.35 0 0 0
223.133 81.6352 -12.471 0 0 0
218.223 83.034 -12.294 0 0 0
212.001 86.004 -12.134 0 0 0
218.272 90.2645 -12.293 0 0 0
217.013 62.4451 -12 0 0 0
221.068 67.0245 -11.777 0 0 0
224.093 67.4925 -11.994 0 0 0
225.371 71.0287 -11.859 0 0 0
215.035 78.0416 -11.815 0 0 0
229.451 78.0145 -11.787 0 0 0
229.451 78.0145 -11.787 0 0 0
214.04 80.0397 -11.91 0 0 0
223.012 81.0161 -11.907 0 0 0
211.072 83.0418 -11.763 0 0 0
220.969 83.4389 -11.997 0 0 0
216.017 86.0164 -11.817 0 0 0
216.017 86.0164 -11.817 0 0 0
220.156 86.0362 -11.814 0 0 0
224.088 87.2227 -11.987 0 0 0
214.064 88.0435 -11.769 0 0 0
226.261 88.4501 -11.997 0 0 0
226.261 88.4501 -11.997 0 0 0
216.174 90.0045 -11.875 0 0 0
219.107 90.0837 -11.867 0 0 0
212.753 63.1521 -11.56 0 0 0
215.083 63.1187 -11.631 0 0 0
218.211 64.0393 -11.578 0 0 0
213.039 71.6026 -11.688 0 0 0
214.034 75.0691 -11.472 0 0 0
227.863 76.0293 -11.587 0 0 0
221.069 77.0071 -11.521 0 0 0
224.106 78.8583 -11.7 0 0 0
215.064 86.0082 -11.619 0 0 0
217.097 88.0517 -11.685 0 0 0
217.097 88.0517 -11.685 0 0 0
217.097 88.0517 -11.685 0 0 0
220.011 88.0095 -11.516 0 0 0
214.195 64.0026 -11.291 0 0 0
217.264 65.46 -11.318 0 0 0
215.581 69.95 -11.259 0 0 0
215.581 69.95 -11.259 0 0 0
218.023 75.2276 -11.161 0 0 0
216.144 81.0172 -11.32 0 0 0
212.056 62.9221 -10.982 0 0 0
212.056 62.9221 -10.982 0 0 0
215.059 63.536 -10.988 0 0 0
213.101 63.6652 -10.954 0 0 0
221.119 67.1188 -10.99 0 0 0
221.119 67.1188 -10.99 0 0 0
221.119 67.1188 -10.99 0 0 0
224.147 69.431 -10.991 0 0 0
225.088 70.5767 -11 0 0 0
225.126 71.0177 -10.913 0 0 0
227.133 72.6336 -10.993 0 0 0
227.133 72.6336 -10.993 0 0 0
228.097 75.4813 -10.992 0 0 0
224.206 79.0081 -10.939 0 0 0
212.11 69.1285 -10.772 0 0 0
228.12 77.0281 -10.51 0 0 0
222.069 78.0851 -10.755 0 0 0
218.096 70.0382 -9.604 0 0 0
218.096 70.0382 -9.604 0 0 0
216.135 77.4687 -24.8 0 0 0
219.345 77.7677 -24.87 0 0 0
221.956 89.6531 -24.639 0 0 0
221.956 89.6531 -24.639 0 0 0
216.129 72.297 -24.511 0 0 0
217.355 86.1938 -24.6 0 0 0
222.509 73.844 -23.457 0 0 0
218.282 79.3167 -23.623 0 0 0
214.049 83.0763 -23.703 0 0 0
214.049 83.0763 -23.703 0 0 0
211.107 67.0169 -22.818 0 0 0
218.02 70.2555 -22.898 0 0 0
224.126 79.1662 -22.973 0 0 0
219.27 83.2018 -23 0 0 0
217.431 86.0343 -22.964 0 0 0
218.419 86.1173 -23.018 0 0 0
219.074 90.1747 -22.846 0 0 0
221.91 90.3771 -22.991 0 0 0
212.443 68.243 -22.694 0 0 0
213.6 68.4599 -22.69 0 0 0
213.6 68.4599 -22.69 0 0 0
211.088 83.8424 -22.437 0 0 0
213.317 87.0177 -22.731 0 0 0
228.179 87.2541 -22.779 0 0 0
219.113 88.8179 -22.503 0 0 0
217.659 71.7051 -21.671 0 0 0
225.093 85.1821 -21.812 0 0 0
225.093 85.1821 -21.812 0 0 0
226.697 86.4054 -21.987 0 0 0
212.047 64.8711 -21.074 0 0 0
216.361 68.089 -21.483 0 0 0
223.552 78.0662 -21.323 0 0 0
223.552 78.0662 -21.323 0 0 0
212.31 82.2753 -21.311 0 0 0
212.053 64.7707 -20.979 0 0 0
219.203 69.0709 -20.967 0 0 0
215.446 83.0584 -20.921 0 0 0
246.237 -29.9257 -18.638 0 0 0
271.221 -22.9259 -18.892 0 0 0
289.376 -19.5169 -18.68 0 0 0
245.982 -15.1902 -19.117 0 0 0
250.48 11.9829 -18.987 0 0 0
287.928 16.0574 -19.091 0 0 0
239.027 62.0259 -18.615 0 0 0
235.107 -32.9531 -18.378 0 0 0
240.22 -31.9986 -18.476 0 0 0
245.14 -29.8695 -18.515 0 0 0
243.135 -26.9178 -18.556 0 0 0
243.171 -25.9256 -18.542 0 0 0
240.175 -24.9761 -18.43 0 0 0
240.175 -24.9761 -18.43 0 0 0
223.122 -1.93608 -18.492 0 0 0
229.084 28.0205 -18.474 0 0 0
230.236 48.0876 -18.331 0 0 0
231.156 48.0096 -18.373 0 0 0
234.22 53.0022 -18.463 0 0 0
234.22 53.0022 -18.463 0 0 0
237.148 59.0461 -18.527 0 0 0
226.313 59.4846 -18.453 0 0 0
237.043 60.0103 -18.486 0 0 0
237.098 66.0445 -18.345 0 0 0
236.124 69.1604 -18.295 0 0 0
237.17 70.004 -18.395 0 0 0
237.015 75.0616 -18.338 0 0 0
239.146 83.0508 -18.256 0 0 0
241.084 87.0412 -18.279 0 0 0
242.091 87.0015 -18.339 0 0 0
242.091 87.0015 -18.339 0 0 0
245.027 -30.902 -17.792 0 0 0
232.087 -29.9641 -17.788 0 0 0
231.064 -28.9995 -17.785 0 0 0
241.23 -25.9731 -17.905 0 0 0
225.048 8.02458 -17.9185 0 0 0
225.048 8.02458 -17.9185 0 0 0
226.011 47.1606 -17.71 0 0 0
226.011 47.1606 -17.71 0 0 0
230.127 56.0088 -17.55 0 0 0
231.047 56.0242 -17.747 0 0 0
226.045 58.1739 -17.545 0 0 0
226.045 58.1739 -17.545 0 0 0
227.892 60.0299 -17.608 0 0 0
227.892 60.0299 -17.608 0 0 0
233.115 61.0659 -17.732 0 0 0
234.068 61.0617 -17.678 0 0 0
223.603 69.7174 -17.902 0 0 0
236.83 85.0455 -17.46 0 0 0
237.139 85.1792 -17.511 0 0 0
238.072 88.002 -17.639 0 0 0
238.072 88.002 -17.639 0 0 0
220.639 50.3123 -17.185 0 0 0
221.922 53.2177 -17.0095 0 0 0
224.542 57.0435 -17 0 0 0
236.001 82.0897 -17.1695 0 0 0
234.176 88.7067 -17.235 0 0 0
226.643 62.2121 -16.688 0 0 0
229.371 65.0503 -16.232 0 0 0
229.371 65.0503 -16.232 0 0 0
210.563 51.4216 -15.711 0 0 0
217.125 51.0006 -15.68 0 0 0
221.303 55.0242 -15.608 0 0 0
221.303 55.0242 -15.608 0 0 0
224.203 58.1608 -15.839 0 0 0
227.091 60.016 -15.752 0 0 0
229.627 69.3354 -15.9625 0 0 0
231.542 76.0377 -16.146 0 0 0
230.769 78.265 -15.745 0 0 0
230.621 78.9061 -16.06 0 0 0
236.078 81.4365 -15.948 0 0 0
227.63 81.8449 -16.019 0 0 0
229.264 60.6042 -15.437 0 0 0
234.055 88.661 -15.17 0 0 0
213.302 46.6466 -14.851 0 0 0
220.086 54.9612 -14.982 0 0 0
220.086 54.9612 -14.982 0 0 0
220.02 59.0014 -14.531 0 0 0
220.02 59.0014 -14.531 0 0 0
224.043 59.2467 -14.983 0 0 0
232.374 79.0239 -14.748 0 0 0
234.004 88.4886 -14.741 0 0 0
214.025 53.567 -13.943 0 0 0
215.136 54.0318 -13.992 0 0 0
215.136 54.0318 -13.992 0 0 0
223.124 61.5048 -13.961 0 0 0
227.099 66.0619 -13.975 0 0 0
231.407 80.0594 -14.148 0 0 0
231.104 87.1531 -14.18 0 0 0
219.087 62.0378 -13.364 0 0 0
229.423 73.014 -13.787 0 0 0
229.237 76.6656 -13.755 0 0 0
218.503 80.3898 -13.307 0 0 0
214.449 81.5162 -13.557 0 0 0
219.346 84.9832 -13.544 0 0 0
213.187 60.2767 -12.9555 0 0 0
213.187 60.2767 -12.9555 0 0 0
219.031 62.447 -12.824 0 0 0
222.267 65.7063 -13.067 0 0 0
222.296 66.1062 -12.667 0 0 0
214.943 76.8005 -13.045 0 0 0
225.139 80.4118 -12.642 0 0 0
228.021 89.1357 -12.87 0 0 0
218.059 75.3051 -12.325 0 0 0
223.113 81.8643 -12.4605 0 0 0
211.137 89.0531 -12.242 0 0 0
211.137 89.0531 -12.242 0 0 0
227.636 69.5736 -11.765 0 0 0
211.044 70.0856 -11.616 0 0 0
211.11 71.0381 -11.638 0 0 0
225.371 71.0287 -11.859 0 0 0
213.039 71.6026 -11.688 0 0 0
213.141 77.1132 -11.639 0 0 0
214.071 78.0287 -11.723 0 0 0
219.141 79.1676 -11.516 0 0 0
220.166 79.205 -11.626 0 0 0
222.071 80.0345 -11.825 0 0 0
211.093 81.0457 -11.63 0 0 0
217.097 88.0517 -11.685 0 0 0
222.11 89.0135 -11.695 0 0 0
217.075 64.0022 -11.287 0 0 0
217.075 64.0022 -11.287 0 0 0
222.109 67.5488 -10.994 0 0 0
222.109 67.5488 -10.994 0 0 0
213.178 70.0389 -10.91 0 0 0
213.065 70.2397 -11.058 0 0 0
213.065 70.2397 -11.058 0 0 0
225.088 70.5767 -11 0 0 0
215.058 72.2742 -10.959 0 0 0
216.128 72.9831 -10.9785 0 0 0
227.107 72.827 -10.922 0 0 0
227.107 72.827 -10.922 0 0 0
218.025 74.1514 -10.997 0 0 0
226.592 78.4154 -11.01 0 0 0
216.144 81.0172 -11.32 0 0 0
228.12 77.0281 -10.51 0 0 0
223.832 81.1723 -10.301 0 0 0
214.784 87.0501 -10.46 0 0 0
217.323 70.0084 -9.7 0 0 0
214.571 87.4339 -9.888 0 0 0
214.571 87.4339 -9.888 0 0 0
212.083 63.6375 -9.3 0 0 0
212.083 63.6375 -9.3 0 0 0
220.281 68.5313 -8.73 0 0 0
218.265 70.6713 -8.704 0 0 0
218.265 70.6713 -8.704 0 0 0
219.606 70.7809 -24.297 0 0 0
211.413 68.1962 -22.9845 0 0 0
214.264 80.8391 -23.918 0 0 0
222.901 81.1626 -23.4285 0 0 0
214.107 82.0642 -23.831 0 0 0
219.036 82.2152 -23.765 0 0 0
218.419 86.1173 -23.018 0 0 0
225.093 85.1821 -21.812 0 0 0
225.093 85.1821 -21.812 0 0 0
211.381 85.8175 -22.644 0 0 0
211.381 85.8175 -22.644 0 0 0
219.203 69.0709 -20.967 0 0 0
225.652 72.0053 -19.982 0 0 0
216.725 79.9682 -19.918 0 0 0
248.058 -27.9378 -18.701 0 0 0
243.171 -25.9256 -18.542 0 0 0
243.026 -24.9862 -18.608 0 0 0
240.593 -23.4622 -18.4913 0 0 0
242.041 -23.4503 -18.587 0 0 0
231.035 29.0514 -18.508 0 0 0
230.073 35.0416 -18.391 0 0 0
234.605 52.0329 -18.5015 0 0 0
236.154 52.011 -18.641 0 0 0
236.155 58.0444 -18.483 0 0 0
237.065 58.0511 -18.565 0 0 0
238.111 65.0349 -18.455 0 0 0
237.17 70.004 -18.395 0 0 0
238.02 71.0151 -18.47 0 0 0
238.179 76.0504 -18.376 0 0 0
242.071 82.0347 -18.474 0 0 0
244.13 88.0328 -18.479 0 0 0
244.103 89.1692 -18.407 0 0 0
240.899 -30.8438 -17.367 0 0 0
245.027 -30.902 -17.792 0 0 0
245.027 -30.902 -17.792 0 0 0
231.094 -29.4835 -17.778 0 0 0
226.091 8.08591 -17.988 0 0 0
230.127 56.0088 -17.55 0 0 0
224.28 56.4847 -17.351 0 0 0
224.28 56.4847 -17.351 0 0 0
233.056 62.0642 -17.738 0 0 0
223.603 69.7174 -17.902 0 0 0
231.074 73.3203 -17.408 0 0 0
231.074 73.3203 -17.408 0 0 0
234.176 88.7067 -17.235 0 0 0
234.176 88.7067 -17.235 0 0 0
211.051 46.0071 -15.62 0 0 0
217.836 48.3692 -16.3117 0 0 0
227.123 60.3799 -16.1222 0 0 0
229.819 64.037 -16.482 0 0 0
229.886 65.0964 -16.2533 0 0 0
232.077 81.0445 -15.992 0 0 0
210.839 49.715 -13.8713 0 0 0
210.839 49.715 -13.8713 0 0 0
214.025 53.567 -13.943 0 0 0
230.163 75.001 -13.694 0 0 0
225.31 80.8233 -13.497 0 0 0
231.251 88.1681 -14.134 0 0 0
230.048 73.9254 -12.9905 0 0 0
214.666 78.9326 -13.0005 0 0 0
215.785 65.1233 -11.029 0 0 0
216.607 65.023 -10.935 0 0 0
223.07 69.0725 -10.914 0 0 0
212.113 72.5781 -11.6765 0 0 0
216.633 73.0448 -10.9172 0 0 0
213.141 77.1132 -11.639 0 0 0
219.08 78.597 -11.495 0 0 0
222.11 89.0135 -11.695 0 0 0
222.11 89.0135 -11.695 0 0 0
223.26 70.0569 -10.574 0 0 0
226.265 73.0351 -10.749 0 0 0
214.757 72.8943 -23.2575 0 0 0
217.191 87.61 -23.1193 0 0 0
298.056 46.6447 -21.317 0 0 0
216.22 64.6788 -20.051 0 0 0
216.166 65.8667 -20.4668 0 0 0
225.652 72.0053 -19.982 0 0 0
223.552 78.0662 -21.323 0 0 0
226.617 -30.1893 -17.7962 0 0 0
238.65 -27.4521 -18.0084 0 0 0
238.65 -27.4521 -18.0084 0 0 0
217.375 25.283 -17.5739 0 0 0
219.619 34.5364 -17.6065 0 0 0
236.508 51.5242 -18.6601 0 0 0
236.508 51.5242 -18.6601 0 0 0
231.61 61.33 -17.3683 0 0 0
232.194 70.7544 -17.2751 0 0 0
238.619 70.5446 -18.5295 0 0 0
241.163 70.5557 -18.7068 0 0 0
241.338 77.7928 -18.5449 0 0 0
236.919 84.9926 -17.3019 0 0 0
243.62 87.543 -18.4465 0 0 0
245.813 87.5253 -18.5176 0 0 0
222.023 63.1737 -14.544 0 0 0
233.658 82.7323 -16.1089 0 0 0
224.29 63.6896 -13.9693 0 0 0
224.29 63.6896 -13.9693 0 0 0
231.003 77.5539 -13.4555 0 0 0
218.997 80.9322 -12.8069 0 0 0
226.745 85.3077 -13.2102 0 0 0
226.745 85.3077 -13.2102 0 0 0
229.151 85.4497 -13.9853 0 0 0
212.683 65.6715 -10.4743 0 0 0
224.627 75.6434 -10.2437 0 0 0
212.591 87.5423 -11.9148 0 0 0
212.083 63.6375 -9.3 0 0 0
219.057 71.0547 -8.972 0 0 0
314.436 -21.536 -20.2365 0 0 0
295.195 2.43816 -20.283 0 0 0
309.321 31.7109 -21.3641 0 0 0
308.353 34.3792 -21.3727 0 0 0
308.353 34.3792 -21.3727 0 0 0
293.343 59.5519 -21.2904 0 0 0
288.193 78.9818 -21.2129 0 0 0
275.867 88.6437 -20.2874 0 0 0
275.867 88.6437 -20.2874 0 0 0
275.867 88.6437 -20.2874 0 0 0
223.218 -26.4798 -17.7312 0 0 0
237.632 -26.4987 -18.0342 0 0 0
237.632 -26.4987 -18.0342 0 0 0
223.312 40.6226 -17.7717 0 0 0
223.228 45.5731 -17.493 0 0 0
222.863 50.6499 -17.0169 0 0 0
218.554 83.9581 -12.1372 0 0 0
210.109 77.8246 -24.781 0 0 0
209.605 77.7798 -23.626 0 0 0
207.815 83.3884 -22.558 0 0 0
210.249 65.3117 -22.432 0 0 0
210.227 67.4159 -22.406 0 0 0
210.326 65.0036 -21.8325 0 0 0
171.001 -31.8559 -17.779 0 0 0
120.072 -23.954 -16.728 0 0 0
120.072 -23.954 -16.728 0 0 0
90.0205 -1.96347 -16.376 0 0 0
207.152 43.2188 -16.479 0 0 0
118.302 33.3303 -16.09 0 0 0
118.302 33.3303 -16.09 0 0 0
156.988 10.5192 -15.889 0 0 0
183.156 23.039 -15.835 0 0 0
162.013 25.1598 -15.697 0 0 0
176.131 25.1599 -15.604 0 0 0
161.064 25.4478 -15.778 0 0 0
200.019 31.1344 -15.758 0 0 0
200.019 31.1344 -15.758 0 0 0
201.019 31.0726 -15.805 0 0 0
168.048 23.0072 -15.6 0 0 0
169.321 27.0281 -15.401 0 0 0
182.031 28.0189 -15.332 0 0 0
182.031 28.0189 -15.332 0 0 0
185.118 29.0804 -15.441 0 0 0
185.118 29.0804 -15.441 0 0 0
185.118 29.0804 -15.441 0 0 0
166.006 29.3045 -15.322 0 0 0
191.069 30.1244 -15.573 0 0 0
163.114 31.0791 -15.418 0 0 0
191.204 31.08 -15.443 0 0 0
162.068 32.0504 -15.471 0 0 0
193.048 33.1927 -15.366 0 0 0
194.196 33.0437 -15.443 0 0 0
200.369 38.0106 -15.441 0 0 0
195.173 38.6997 -15.349 0 0 0
161.027 41.0563 -15.366 0 0 0
204.133 42.0545 -15.38 0 0 0
206.087 42.0367 -15.533 0 0 0
160.141 43.067 -15.38 0 0 0
160.141 43.067 -15.38 0 0 0
205.012 43.0348 -15.309 0 0 0
156.075 45.0085 -15.45 0 0 0
208.06 45.0371 -15.376 0 0 0
115.065 52.0939 -15.578 0 0 0
133.197 55.1801 -15.534 0 0 0
143.035 55.0458 -15.393 0 0 0
143.035 55.0458 -15.393 0 0 0
171.044 65.3 -15.563 0 0 0
181.148 28.1602 -15.24 0 0 0
163.113 34.0737 -15.293 0 0 0
163.026 37.1613 -15.215 0 0 0
198.058 37.0527 -15.266 0 0 0
161.071 47.0675 -15.248 0 0 0
113.019 60.0258 -15.282 0 0 0
166.131 61.0435 -15.174 0 0 0
111.163 62.1038 -15.26 0 0 0
169.017 62.3073 -15.15 0 0 0
170.087 63.1425 -15.06 0 0 0
192.782 67.4924 -15.103 0 0 0
160.488 24.5526 -14.991 0 0 0
167.353 26.7782 -14.92 0 0 0
190.019 29.9723 -14.9515 0 0 0
174.121 30.0264 -14.851 0 0 0
179.117 30.0114 -14.776 0 0 0
168.025 31.0496 -14.874 0 0 0
191.324 32.1376 -14.874 0 0 0
161.906 32.9922 -14.995 0 0 0
166.078 33.0594 -14.731 0 0 0
193.735 33.0207 -14.948 0 0 0
194.006 33.0383 -14.981 0 0 0
162.719 36.593 -14.964 0 0 0
199.107 40.0576 -14.788 0 0 0
200.51 41.0471 -14.894 0 0 0
160.462 42.4532 -14.989 0 0 0
160.462 42.4532 -14.989 0 0 0
203.053 43.0885 -14.8 0 0 0
203.053 43.0885 -14.8 0 0 0
207.095 44.544 -15 0 0 0
164.007 45.1785 -14.842 0 0 0
208.158 45.5479 -14.985 0 0 0
162.658 48.3452 -14.98 0 0 0
210.106 49.0433 -14.899 0 0 0
167.099 52.0997 -14.962 0 0 0
166.026 57.0523 -14.708 0 0 0
112.276 60.0959 -14.928 0 0 0
112.276 60.0959 -14.928 0 0 0
111.95 62.1808 -14.9 0 0 0
117.38 62.3714 -15 0 0 0
117.38 62.3714 -15 0 0 0
171.065 65.0542 -14.893 0 0 0
136.573 65.27 -14.99 0 0 0
151.673 65.6604 -14.988 0 0 0
151.673 65.6604 -14.988 0 0 0
174.095 67.427 -14.791 0 0 0
116.426 68.6294 -14.905 0 0 0
177.179 69.4122 -14.866 0 0 0
177.179 69.4122 -14.866 0 0 0
113.135 71.0548 -14.851 0 0 0
178.042 73.2653 -14.918 0 0 0
181.356 76.0114 -14.94 0 0 0
184.135 76.2562 -14.804 0 0 0
165.377 28.6354 -14.471 0 0 0
165.377 28.6354 -14.471 0 0 0
182.082 31.049 -14.678 0 0 0
175.008 32.1914 -14.438 0 0 0
191.121 35.0967 -14.669 0 0 0
166.112 36.3994 -14.5 0 0 0
166.112 36.3994 -14.5 0 0 0
200.03 42.2887 -14.537 0 0 0
156.159 44.1741 -14.644 0 0 0
167.206 45.0216 -14.544 0 0 0
204.26 47.2369 -14.534 0 0 0
167.035 48.0414 -14.486 0 0 0
207.031 49.0407 -14.544 0 0 0
207.031 49.0407 -14.544 0 0 0
208.114 49.0068 -14.486 0 0 0
170.131 53.14 -14.532 0 0 0
167.172 58.1974 -14.56 0 0 0
169.046 58.0696 -14.651 0 0 0
170.071 58.02 -14.569 0 0 0
170.071 58.02 -14.569 0 0 0
169.049 61.2732 -14.619 0 0 0
170.011 62.1909 -14.426 0 0 0
177.307 66.7448 -14.531 0 0 0
181.026 67.0846 -14.406 0 0 0
179.098 73.0498 -14.637 0 0 0
198.104 76.7399 -14.606 0 0 0
198.104 76.7399 -14.606 0 0 0
183.057 80.0237 -14.647 0 0 0
183.058 81.0827 -14.691 0 0 0
104.168 83.1827 -14.646 0 0 0
188.184 86.1361 -14.439 0 0 0
188.049 87.0411 -14.457 0 0 0
181.729 59.3242 -14.37 0 0 0
191.453 75.5107 -14.318 0 0 0
185.36 34.035 -14 0 0 0
201.073 41.3978 -13.995 0 0 0
167.174 45.2035 -13.994 0 0 0
167.174 45.2035 -13.994 0 0 0
205.509 46.7194 -13.926 0 0 0
205.509 46.7194 -13.926 0 0 0
207.037 48.2575 -13.999 0 0 0
169.426 52.0413 -13.999 0 0 0
210.185 53.0479 -13.842 0 0 0
175.519 68.2959 -13.85 0 0 0
177.523 70.2898 -13.918 0 0 0
177.523 70.2898 -13.918 0 0 0
179.087 74.0797 -13.981 0 0 0
179.087 74.0797 -13.981 0 0 0
183.978 76.0447 -13.9515 0 0 0
197.636 76.4919 -13.969 0 0 0
183.163 80.0128 -13.998 0 0 0
183.163 80.0128 -13.998 0 0 0
186.593 84.8646 -13.942 0 0 0
186.593 84.8646 -13.942 0 0 0
186.593 84.8646 -13.942 0 0 0
187.948 89.5136 -13.9215 0 0 0
205.096 47.5285 -13.633 0 0 0
200.094 54.0356 -13.304 0 0 0
196.659 56.6939 -12.937 0 0 0
196.659 56.6939 -12.937 0 0 0
207.055 57.0394 -12.759 0 0 0
203.079 59.2261 -12.789 0 0 0
182.003 62.0272 -12.671 0 0 0
201.131 63.0488 -12.852 0 0 0
201.507 64.005 -12.637 0 0 0
202.044 65.4107 -12.666 0 0 0
204.309 67.5803 -12.697 0 0 0
193.063 68.0265 -12.894 0 0 0
195.114 70.0075 -12.65 0 0 0
201.026 70.0159 -12.822 0 0 0
202.012 70.0008 -12.665 0 0 0
202.071 71.0451 -12.656 0 0 0
207.725 74.486 -12.79 0 0 0
208.52 76.0353 -12.844 0 0 0
204.153 78.0195 -12.604 0 0 0
204.153 78.0195 -12.604 0 0 0
207.064 84.0336 -12.722 0 0 0
207.064 84.0336 -12.722 0 0 0
199.034 53.6163 -12.496 0 0 0
200.122 54.0482 -12.489 0 0 0
200.122 54.0482 -12.489 0 0 0
208.442 54.9777 -12.483 0 0 0
208.155 58.2016 -12.495 0 0 0
197.04 74.0612 -12.492 0 0 0
208.149 88.0205 -12.533 0 0 0
209.085 88.0293 -12.437 0 0 0
206.734 65.6443 -12.013 0 0 0
195.601 76.6218 -12.284 0 0 0
210.389 79.6201 -12.049 0 0 0
196.432 56.5922 -12 0 0 0
202.845 58.9785 -11.932 0 0 0
204.273 61.2062 -11.955 0 0 0
207.089 62.1522 -11.73 0 0 0
202.444 63.2152 -11.994 0 0 0
202.444 63.2152 -11.994 0 0 0
206.018 63.1964 -11.899 0 0 0
199.962 63.4721 -11.9855 0 0 0
204.152 67.0397 -11.83 0 0 0
203.288 67.2131 -11.994 0 0 0
193.003 68.2582 -11.959 0 0 0
201.493 69.4177 -11.94 0 0 0
194.365 70.1021 -11.896 0 0 0
194.365 70.1021 -11.896 0 0 0
206.104 73.0178 -11.795 0 0 0
206.492 75.3754 -11.932 0 0 0
204.409 78.1256 -11.937 0 0 0
204.409 78.1256 -11.937 0 0 0
207.033 78.0006 -11.914 0 0 0
205.996 81.0226 -11.99 0 0 0
207.429 83.0093 -11.917 0 0 0
208.494 85.0723 -11.992 0 0 0
210.009 87.0284 -11.877 0 0 0
207.211 61.1093 -11.491 0 0 0
182.042 62.1042 -11.457 0 0 0
210.308 68.4238 -11.535 0 0 0
207.008 72.0553 -11.675 0 0 0
209.085 75.1122 -11.486 0 0 0
209.103 79.0521 -11.679 0 0 0
209.103 79.0521 -11.679 0 0 0
210.164 80.0472 -11.53 0 0 0
209.007 60.1749 -10.984 0 0 0
209.007 60.1749 -10.984 0 0 0
206.53 62.0558 -10.945 0 0 0
205.271 64.0928 -10.993 0 0 0
208.595 66.0455 -10.998 0 0 0
209.465 69.0826 -10.968 0 0 0
209.404 68.7866 -10.776 0 0 0
206.253 70.0092 -10.702 0 0 0
209.421 82.9875 -24.425 0 0 0
170.838 -31.8277 -18.658 0 0 0
90.0205 -1.96347 -16.376 0 0 0
207.152 43.2188 -16.479 0 0 0
207.152 43.2188 -16.479 0 0 0
207.152 43.2188 -16.479 0 0 0
210.091 53.9425 -16.242 0 0 0
161.033 23.0362 -15.792 0 0 0
164.176 28.1772 -15.608 0 0 0
193.018 31.0283 -15.653 0 0 0
199.065 36.0339 -15.669 0 0 0
161.334 47.4922 -16.151 0 0 0
119.988 -24.0353 -15.445 0 0 0
128.203 -22.7257 -15.183 0 0 0
168.048 23.0072 -15.6 0 0 0
170.024 26.0495 -15.417 0 0 0
165.003 27.0217 -15.52 0 0 0
180.14 27.0017 -15.369 0 0 0
184.177 28.0049 -15.484 0 0 0
187.112 29.0001 -15.518 0 0 0
195.048 34.069 -15.468 0 0 0
196.028 34.0123 -15.571 0 0 0
196.028 34.0123 -15.571 0 0 0
199.143 37.0313 -15.461 0 0 0
195.173 38.6997 -15.349 0 0 0
160.032 40.0081 -15.462 0 0 0
203.127 40.0188 -15.559 0 0 0
199.891 40.2537 -15.027 0 0 0
160.052 41.048 -15.428 0 0 0
206.087 42.0367 -15.533 0 0 0
158.098 43.024 -15.478 0 0 0
160.041 44.0488 -15.381 0 0 0
142.012 54.0098 -15.432 0 0 0
167.006 60.2397 -15.17 0 0 0
169.017 62.3073 -15.15 0 0 0
171.044 65.3 -15.563 0 0 0
192.782 67.4924 -15.103 0 0 0
90.3339 -1.95084 -14.951 0 0 0
161.174 24.8878 -14.845 0 0 0
93.3478 26.3344 -14.625 0 0 0
168.147 26.7459 -14.847 0 0 0
168.147 26.7459 -14.847 0 0 0
190.019 29.9723 -14.9515 0 0 0
191.324 32.1376 -14.874 0 0 0
191.121 35.0967 -14.669 0 0 0
191.121 35.0967 -14.669 0 0 0
166.112 36.3994 -14.5 0 0 0
166.112 36.3994 -14.5 0 0 0
165.042 44.0201 -14.701 0 0 0
207.095 44.544 -15 0 0 0
207.095 44.544 -15 0 0 0
206.461 46.0458 -14.901 0 0 0
209.21 48.0621 -14.907 0 0 0
168.085 52.1022 -14.764 0 0 0
209.919 55.6249 -14.539 0 0 0
169.112 56.0923 -14.685 0 0 0
169.091 57.0831 -14.672 0 0 0
169.046 58.0696 -14.651 0 0 0
112.276 60.0959 -14.928 0 0 0
170.011 62.1909 -14.426 0 0 0
174.095 67.427 -14.791 0 0 0
174.095 67.427 -14.791 0 0 0
178.042 73.2653 -14.918 0 0 0
178.042 73.2653 -14.918 0 0 0
181.356 76.0114 -14.94 0 0 0
198.104 76.7399 -14.606 0 0 0
198.006 80.3938 -14.42 0 0 0
186.192 88.1169 -14.645 0 0 0
167.43 30.4589 -13.998 0 0 0
167.43 30.4589 -13.998 0 0 0
182.542 30.7447 -13.995 0 0 0
182.542 30.7447 -13.995 0 0 0
201.073 41.3978 -13.995 0 0 0
167.174 45.2035 -13.994 0 0 0
205.509 46.7194 -13.926 0 0 0
205.509 46.7194 -13.926 0 0 0
169.048 51.1676 -13.988 0 0 0
142.017 54.443 -14.044 0 0 0
169.114 60.0076 -13.991 0 0 0
169.114 60.0076 -13.991 0 0 0
170.603 62.034 -13.968 0 0 0
170.603 62.034 -13.968 0 0 0
177.523 70.2898 -13.918 0 0 0
177.86 71.0632 -14.1695 0 0 0
178.465 71.044 -13.881 0 0 0
194.467 37.9482 -13.281 0 0 0
196.769 39.0109 -13.577 0 0 0
196.769 39.0109 -13.577 0 0 0
203.482 76.7087 -13.568 0 0 0
203.482 76.7087 -13.568 0 0 0
205.048 57.0073 -12.726 0 0 0
205.048 57.0073 -12.726 0 0 0
202.134 62.0522 -12.792 0 0 0
203.065 62.0802 -12.657 0 0 0
201.05 66.0092 -12.814 0 0 0
192.146 70.0562 -13.0915 0 0 0
203.079 79.1075 -12.642 0 0 0
207.064 84.0336 -12.722 0 0 0
207.11 87.13 -12.632 0 0 0
200.091 53.3787 -12.514 0 0 0
209.818 60.0209 -12.359 0 0 0
206.099 62.1688 -12.116 0 0 0
206.734 65.6443 -12.013 0 0 0
183.025 70.2216 -12.274 0 0 0
203.091 72.0748 -12.567 0 0 0
197.04 74.0612 -12.492 0 0 0
204.066 74.0387 -12.502 0 0 0
208.014 87.0321 -12.592 0 0 0
208.014 87.0321 -12.592 0 0 0
197.539 56.9913 -11.996 0 0 0
207.684 57.8926 -11.981 0 0 0
204.108 59.2519 -11.991 0 0 0
210.037 60.3089 -11.996 0 0 0
182.042 62.1042 -11.457 0 0 0
206.028 67.0195 -11.528 0 0 0
192.141 68.0591 -11.7195 0 0 0
208.009 68.1346 -11.705 0 0 0
207.008 72.0553 -11.675 0 0 0
210.084 75.0362 -11.462 0 0 0
204.409 78.1256 -11.937 0 0 0
204.409 78.1256 -11.937 0 0 0
209.027 80.0392 -11.725 0 0 0
210.071 85.0316 -11.907 0 0 0
206.699 60.9625 -10.8605 0 0 0
207.905 60.3062 -10.727 0 0 0
205.348 68.8542 -10.283 0 0 0
210.045 86.8242 -10.573 0 0 0
164.014 23.0406 -15.825 0 0 0
165.06 23.0341 -15.756 0 0 0
186.624 28.0488 -15.6375 0 0 0
194.067 30.5256 -15.828 0 0 0
161.334 47.4922 -16.151 0 0 0
164.032 27.0066 -15.556 0 0 0
162.611 29.0341 -15.533 0 0 0
161.063 36.5471 -15.4585 0 0 0
167.056 44.0321 -14.464 0 0 0
166.042 53.0035 -14.9275 0 0 0
168.542 64.031 -15.0167 0 0 0
167.43 30.4589 -13.998 0 0 0
167.43 30.4589 -13.998 0 0 0
191.053 38.0379 -14.292 0 0 0
201.073 41.3978 -13.995 0 0 0
201.073 41.3978 -13.995 0 0 0
201.124 42.0059 -13.878 0 0 0
205.509 46.7194 -13.926 0 0 0
169.048 51.1676 -13.988 0 0 0
171.117 60.6038 -13.7945 0 0 0
174.754 65.2331 -13.9157 0 0 0
174.754 65.2331 -13.9157 0 0 0
179.036 71.0517 -14.012 0 0 0
180.733 71.2632 -13.925 0 0 0
203.482 76.7087 -13.568 0 0 0
204.572 56.0219 -12.9805 0 0 0
202.134 62.0522 -12.792 0 0 0
198.577 68.0176 -12.9765 0 0 0
203.048 75.0098 -12.537 0 0 0
207.016 86.038 -12.72 0 0 0
208.155 62.0012 -10.861 0 0 0
209.178 81.0127 -11.77 0 0 0
209.178 81.0127 -11.77 0 0 0
188.527 27.5297 -15.7325 0 0 0
195.55 29.7914 -15.9705 0 0 0
197.786 32.5382 -15.9271 0 0 0
200.478 34.5248 -15.9732 0 0 0
159.598 37.3108 -15.529 0 0 0
207.594 39.537 -16.2354 0 0 0
207.602 41.7686 -15.9408 0 0 0
161.735 46.7387 -15.3728 0 0 0
161.807 49.3043 -15.1958 0 0 0
161.84 51.5401 -15.2031 0 0 0
166.632 65.8024 -15.0331 0 0 0
169.333 65.8382 -14.9887 0 0 0
178.536 77.7892 -14.7357 0 0 0
91.027 82.0416 -14.499 0 0 0
167.43 30.4589 -13.998 0 0 0
167.43 30.4589 -13.998 0 0 0
182.84 30.9218 -14.0963 0 0 0
195.434 38.1563 -13.7379 0 0 0
202.025 45.0122 -14.353 0 0 0
173.78 58.5496 -13.631 0 0 0
173.779 61.2938 -13.5796 0 0 0
173.779 61.2938 -13.5796 0 0 0
197.803 63.4832 -12.9966 0 0 0
197.803 63.4832 -12.9966 0 0 0
197.817 65.7858 -12.9707 0 0 0
181.349 70.6733 -13.7054 0 0 0
183.511 70.4696 -13.2896 0 0 0
183.511 70.4696 -13.2896 0 0 0
193.296 87.531 -13.7027 0 0 0
204.048 65.4139 -24.1545 0 0 0
203.968 65.3974 -23.8919 0 0 0
206.212 87.33 -23.865 0 0 0
155.94 40.6602 -15.5014 0 0 0
160.704 55.179 -15.205 0 0 0
155.959 59.9101 -15.2792 0 0 0
179.988 35.986 -13.9984 0 0 0
204.476 79.1242 -12.3119 0 0 0
199.163 83.94 -12.9966 0 0 0
203.963 83.9262 -12.7494 0 0 0
209.616 91.1057 -23.845 0 0 0
189.048 91.4577 -14.573 0 0 0
189.048 91.4577 -14.573 0 0 0
195.137 94.463 -14.414 0 0 0
190.136 95.0519 -14.532 0 0 0
195.19 99.6904 -14.651 0 0 0
193.035 92.1478 -14.101 0 0 0
196.561 100.717 -13.62 0 0 0
196.561 100.717 -13.62 0 0 0
196.561 100.717 -13.62 0 0 0
193.907 98.0683 -13.44 0 0 0
208.15 91.0243 -12.557 0 0 0
208.15 91.0243 -12.557 0 0 0
209.164 93.2127 -12.516 0 0 0
208.074 94.0408 -12.378 0 0 0
192.437 92.2569 -15.07 0 0 0
196.988 92.9918 -15.243 0 0 0
196.988 92.9918 -15.243 0 0 0
194.174 100.055 -14.515 0 0 0
195.137 99.8626 -14.602 0 0 0
207.072 91.0021 -12.621 0 0 0
207.002 92.0098 -12.711 0 0 0
210.041 91.4134 -12.005 0 0 0
209.164 93.2127 -12.516 0 0 0
209.164 93.2127 -12.516 0 0 0
210.01 92.0327 -11.985 0 0 0
193.199 101.064 -14.549 0 0 0
193.199 101.064 -14.549 0 0 0
194.069 96.5764 -13.85 0 0 0
206 92.0328 -12.915 0 0 0
207.002 92.0098 -12.711 0 0 0
207.622 101.744 -12.9872 0 0 0
209.69 101.472 -12.8623 0 0 0
208.666 98.4148 -12.6547 0 0 0
203.889 101.827 -13.7072 0 0 0
