2.94301 314.599 324.14
-0.0986852 313.588 331.649
-4.99166 311.208 337.577
-5.73118 310.608 343.806
1.39736 310.879 393.31
0.718058 312.918 328.155
0.28722 312.706 327.961
0.195904 312.559 327.919
0.31649 312.865 329.042
-1.89996 311.822 330.76
-1.11135 311.967 333.764
-16.4079 304.891 381.88
0.871496 312.408 326.723
0.296155 311.928 327.724
0.545834 312.217 328.847
0.436381 312.018 328.342
-0.909583 311.577 329.086
-0.127947 312.233 329.496
-1.31109 311.327 332.71
1.8143 309.893 393.369
0.13686 311.574 326.82
-0.874792 310.942 330
2.09431 311.523 324.462
-3.17197 309.023 344.947
-2.42963 308.733 345.529
-2.60514 308.784 346.198
0.583552 310.2 323.948
226.932 388.054 144.712
-3.06674 307.285 351.826
226.668 387.811 144.224
0.279873 308.728 326.725
-2.17747 307.021 336.16
-3.07278 306.52 351.581
227.212 387.131 142.652
1.725 308.228 326.497
1.74879 308.159 327.106
-2.70432 305.926 351.374
-3.00486 305.298 352.289
-1.44028 306.503 333.14
-1.35077 305.917 333.555
-2.01072 305.641 334.238
-1.96745 306.062 334.255
-2.74599 305.342 336.396
-2.42869 305.399 342.828
-3.66525 304.665 352.93
-1.65629 305.212 333.952
-2.67471 304.546 342.547
-1.46693 304.481 334.506
-19.2904 297.426 377.371
2.20515 305.579 328.08
-0.175148 304.041 333.559
-1.78914 303.785 334.447
-2.24773 303.734 336.886
-1.60645 303.524 343.394
-2.44289 303.252 345.381
-3.32463 302.861 346.621
-3.00712 302.926 346.726
-4.74131 301.922 350.905
-2.51225 302.642 336.058
-2.28098 302.777 336.899
-1.72572 302.656 342.192
-3.88804 301.874 346.39
-3.46601 302.189 347.864
-5.25759 301.231 351.381
-5.77807 301.33 352.04
0.429355 303.143 331.974
-1.98701 302.523 335.488
-2.42711 301.716 341.667
-2.24257 302.163 343.001
-3.59133 301.58 343.228
-3.52888 301.466 346.03
-0.213339 302.555 331.084
-1.78547 301.762 335.289
-5.0654 300.637 336.947
-3.83617 300.63 345.715
-3.94758 300.135 346.534
-4.73627 299.848 336.839
-3.66306 300.278 342.541
0.545227 301.451 327.994
-5.2605 298.842 335.023
-5.08388 298.89 335.793
-3.73405 298.864 347.016
0.481943 300.15 328.218
-5.83016 298.323 336.398
-4.65301 298.016 344.452
-4.04075 297.854 347.416
0.860652 299.497 327.963
-16.7133 292.354 370.239
-22.8453 290.809 375.791
0.91571 299.354 328.098
-24.8385 289.215 372.717
-3.69236 296.43 347.456
-3.70946 295.756 347.879
-5.59115 295.166 356.965
-3.10179 295.387 348.493
-5.66654 294.186 358.186
5.55848 298.657 319.745
2.51519 297.716 323.987
2.57028 297.757 324.746
-2.10492 295.348 348.298
-10.4396 286.331 365.476
71.8991 468.628 390.702
73.7245 467.133 376.046
68.6109 462.818 395.401
67.9601 461.292 392.196
73.9922 464.802 381.957
68.0392 459.989 394.202
70.3943 460.462 386.923
67.1999 458.4 393.975
66.2207 456.807 393.082
69.3985 445.951 400.294
68.5892 443.544 397.188
67.8808 442.646 398.226
67.9412 442.678 398.233
67.1342 441.245 397.792
239.057 536.764 337.679
230.38 531.49 332.196
230.061 531.44 332.182
235.401 533.985 336.306
226.152 528.4 331.799
225.47 526.944 331.351
229.156 528.949 332.762
228.061 527.877 332.534
228.153 528.157 334.447
231.92 529.943 336.042
217.209 521.525 323.654
224.471 524.953 331.658
228.818 527.409 333.894
230.262 527.88 335.577
175.558 500.101 301.491
215.049 519.87 321.557
223.726 523.409 331.211
176.206 499.991 300.272
215.091 519.046 322.495
215.428 518.359 322.3
216.031 518.708 324.469
213.812 516.936 320.64
176.239 497.972 302.747
66.2774 433.758 386.438
210.323 512.556 322.115
63.7829 431.6 383.881
206.424 509.655 317.14
202.782 507.099 314.518
201.992 506.371 315.119
178.035 493.874 300.591
177.135 492.74 307.245
174.882 490.964 309.492
175.313 486.604 329.064
174.083 485.478 328.735
52.9129 417.737 381.021
53.289 417.526 382.645
50.9075 415.044 381.583
50.0773 413.707 381.171
50.2256 413.012 382.257
46.0934 410.562 383.316
146.608 467.726 270.249
146.713 461.654 353.743
140.516 464.232 266.951
143.503 465.672 270.943
144.024 459.316 352.348
145.044 459.889 353.295
49.7042 411.019 379.891
48.357 410.222 380.467
144.062 464.874 271.404
143.357 464.215 272.308
144.702 458.71 352.954
151.265 460.418 374.289
143.136 463.636 268.619
142.92 463.32 271.786
143.514 463.21 273.256
144.124 463.468 274.962
146.066 457.75 364.632
149.605 458.592 370.795
150.495 459.166 371.896
138.42 459.895 265.431
136.193 458.941 268.569
139.981 460.737 270
143.576 462.23 274.45
144.118 462.453 276.169
143.515 462.048 276.188
149.455 464.388 279.495
147.37 457.719 365.153
149.942 457.951 369.396
133.662 456.614 265.471
139.383 459.544 269.52
139.725 459.47 271.167
142.088 460.456 275.937
149.329 457.583 367.465
134.92 456.604 268.345
143.498 459.953 276.361
130.799 454.836 255.125
130.554 454.568 256.947
133.312 455.241 266.476
134.87 455.706 267.848
139.66 457.266 272.452
145.742 454.164 360.014
129.499 453.095 256.603
130.902 453.568 258.289
130.79 452.792 260.99
130.368 452.697 263.812
131.148 452.715 264.982
144.206 452.298 359.086
120.111 439.827 369.223
129.07 451.686 258.169
127.971 450.405 261.155
129.32 451.608 262.3
129.117 451.472 264.183
127.081 450.094 265.119
132.188 452.82 266.207
134.952 453.711 268.152
146.142 452.597 361.043
120.254 439.093 370.324
128.55 450.55 257.621
127.031 449.561 262.196
128.767 450.574 261.969
130.951 451.427 265.793
137.412 454.141 269.541
120.287 438.616 368.729
119.507 437.687 369.89
119.336 438.005 370.927
126.291 448.142 258.625
132.575 447.116 309.992
123.214 439.172 358.904
119.784 436.706 367.4
118.739 436.65 370.496
125.787 446.851 259.89
126.402 447.027 261.548
127.63 447.575 263.179
130.05 448.467 267.11
131.058 446.653 301.413
132.062 445.949 309.862
130.969 445.186 313.238
124.68 445.325 259.066
125.676 445.765 261.074
127.452 446.69 262.849
128.599 447.053 264.982
128.625 444.818 300.299
131.603 445.152 314.246
133.991 445.021 322.44
53.6912 404.205 366.962
123.149 444.506 256.299
124.393 444.423 256.409
122.533 443.799 257.445
126.133 444.863 261.52
126.997 445.575 262.491
127.479 445.696 263.674
128.059 443.968 293.548
121.206 436.136 349.332
122.877 443.134 253.763
122.877 443.134 253.763
120.637 441.82 255.915
121.857 442.698 257.167
121.611 442.635 257.464
121.826 442.273 260.686
125.081 443.41 261.488
135.54 444.53 323.89
48.9121 399.087 376.231
119.578 440.551 255.696
120.459 441.251 257.042
121.178 441.103 258.173
122.084 441.339 259.806
119.546 439.384 256.35
121.262 440.065 258.55
121.959 440.375 259.491
122.278 440.465 260.401
120.619 439.173 265.28
129.28 440.71 301.691
128.859 440.542 301.57
120.013 439.18 257.337
120.928 438.983 258.32
119.605 438.013 263.116
125.334 438.69 291.726
117.109 437.04 249.5
118.323 437.955 250.562
118.97 437.153 257.109
118.97 437.153 257.109
119.058 437.213 257.023
119.734 437.822 258.461
118.967 437.348 260.504
127.886 439.218 293.765
114.315 434.687 249.548
117.837 435.829 254.98
117.249 435.503 256.046
117.56 436.423 256.409
120.52 436.223 275.968
122.567 436.039 285.191
124.84 437.395 286.892
126.898 438.298 288.971
129.604 438.77 293.526
126.726 437.004 290.456
129.245 437.627 292.294
128.076 436.816 291.001
111.569 430.517 246.718
115.152 430.433 253.867
22.1733 382.144 326.626
115.551 428.603 252.671
116.292 428.942 254.042
117.032 429.12 255.023
21.7036 381.218 326.338
21.3079 380.819 327.708
107.424 424.783 243.767
110.752 426.462 249.821
112.312 426.782 251.255
116.488 428.255 261.114
115.505 427.382 254.749
117.327 427.662 261.355
115.869 426.524 254.366
80.9486 406.948 301.032
16.2085 375.854 326.935
107.953 422.12 245.217
21.3952 376.592 338.1
39.6595 382.207 374.634
102.004 419.123 237.029
100.206 418.962 238.807
106.337 420.812 245.16
108.863 421.441 246.01
112.695 423.24 249.692
82.1327 405.835 303.488
81.0965 403.654 326.378
80.9849 403.383 327.38
80.9128 403.378 327.756
20.3139 376.246 324.159
20.1525 375.92 332.321
20.0754 375.729 333.436
21.3548 375.844 337.917
21.6671 376.035 338.533
100.82 417.892 238.336
107.509 420.074 245.603
82.3735 405.169 298.828
16.9383 374.031 329.574
19.5947 374.521 332.554
39.2997 380.437 375.361
90.9155 413.602 227.134
94.1638 414.591 230.473
96.4637 415.4 233.455
106.339 419.308 244.872
107.927 419.366 244.911
111.937 421.603 247.07
111.183 420.704 248.358
112.469 421.073 249.425
111.378 421.24 249.291
82.6564 404.335 298.668
82.8593 404.676 299.666
82.8545 404.476 299.609
82.9477 404.399 300.86
83.0516 404.899 300.466
80.6031 402.277 313.68
18.8213 373.399 332.244
80.62 408.405 217.431
80.8562 408.601 218.343
81.746 409.032 218.705
111.777 419.88 248.082
83.1605 403.493 299.283
83.155 403.681 300.308
82.3276 403.845 299.476
72.5009 398.961 299.565
80.1209 401.677 309.719
80.0442 402.011 311.197
82.188 402.534 312.911
17.8689 372.639 330.778
17.159 372.487 330.023
18.4464 372.696 332.848
38.892 379.144 370.294
82.6267 408.254 219.372
84.0298 408.906 219.645
97.1378 413.707 236.599
96.0521 412.969 236.974
105.977 416.973 244.631
17.3565 371.746 330.538
40.1849 379.534 365.171
39.9302 378.792 367.05
82.1321 407.926 218.337
84.4339 408.539 222.078
88.749 409.905 228.578
90.6873 410.524 229.807
91.9544 410.619 232.696
105.19 415.934 245.445
18.7059 371.374 334.488
38.6209 377.424 364.519
39.3175 377.559 368.304
38.2455 377.505 369.507
77.5088 404.802 217.194
81.7842 406.988 219.033
82.8471 406.889 220.094
83.3168 407.177 221.7
84.2345 407.309 224.656
85.5333 407.569 225.823
84.2623 406.839 225.667
84.922 407.225 228.13
89.6412 409.316 229.486
88.8362 409.17 230.941
89.8385 409.256 231.275
89.6653 409.243 231.876
102.669 414.142 243.047
104.203 414.625 242.997
102.522 413.493 243.824
16.6342 370.115 330.001
37.1241 376.409 365.382
40.0188 377.394 366.839
80.4938 405.07 218.004
78.0086 404.226 217.434
81.5137 405.451 220.169
78.5908 404.045 220.87
81.3719 404.971 221.866
83.7055 406.487 222.823
85.4342 407.01 226.815
85.9056 407.091 228.054
88.6467 408.133 232.14
37.8797 376.119 363.134
37.9482 376.293 364.165
39.1891 376.443 367.984
35.2276 374.168 370.144
76.1936 402.631 217.373
78.4735 403.048 219.423
78.5966 403.344 220.362
83.8424 405.536 226.591
93.3336 408.491 235.932
92.72 408.376 240.345
93.5931 408.491 241.85
37.5971 375.295 363.849
36.2928 374.318 370.327
20.0883 365.804 385.802
75.1703 401.072 218.338
82.1786 403.563 224.85
82.1827 403.566 224.849
92.0771 406.77 240.258
91.9431 407.202 240.672
37.6529 374.432 363.591
77.1254 401.155 219.144
78.3156 401.318 220.777
79.0315 401.568 222.791
83.8563 403.358 228.417
91.7152 405.739 241.669
37.745 373.58 364.715
73.6187 399.153 216.425
73.1053 399.073 216.724
77.151 400.15 219.745
67.336 388.115 322.302
37.7584 372.541 364.373
20.8716 363.151 392.008
86.3068 402.766 228.531
38.214 371.694 365.225
37.3983 371.397 364.989
38.0421 371.862 366.238
18.7591 361.728 394.97
67.9736 395.165 209.024
77.4237 398.176 221.286
79.9236 399.429 223.526
79.1284 399.391 222.945
89.4619 403.037 230.282
93.3728 404.049 232.991
93.4457 403.587 239.527
20.5528 362.161 390.725
65.1217 393.445 211.211
67.1162 394.035 214.669
70.3578 394.672 215.885
77.5317 397.333 221.489
78.1085 398.281 221.919
78.7646 398.512 222.668
79.4472 398.499 223.27
81.3212 399.033 224.347
82.8426 399.575 224.943
85.9923 400.877 227.489
94.1852 403.852 234.095
36.7818 369.623 364.379
37.1968 370.38 364.673
68.1641 392.995 215.359
71.0082 394.529 216.657
71.827 395.015 217.379
72.2902 394.595 217.88
81.3217 398.154 224.055
82.6887 398.629 224.642
83.3896 398.824 225.199
94.2048 403.436 232.719
37.2949 369.005 364.158
62.7345 391.001 207.97
60.9883 389.866 209.411
63.2092 390.644 211.521
64.7647 391.013 212.595
71.0737 393.357 216.757
71.9084 394.173 217.18
72.4872 393.804 217.658
72.9256 394.181 218.243
73.2202 394.739 218.468
74.5661 394.597 219.72
79.267 396.764 222.669
80.0114 396.977 223.181
82.5223 397.678 224.341
81.9406 397.613 223.813
80.7413 397.049 223.729
83.2509 397.885 224.899
95.3489 402.96 232.396
55.8445 378.419 335.662
36.4269 368.043 361.789
35.571 367.77 364.84
19.4618 358.791 392.052
56.8231 387.312 207.998
68.9802 392.25 215.673
71.8287 393.212 217.145
71.515 393.209 216.958
72.8455 393.233 218.044
73.7172 393.778 218.497
73.5482 393.306 218.591
74.9055 394.044 219.257
79.7605 395.942 222.954
83.9568 397.459 225.967
85.069 397.571 226.548
55.8427 377.375 336.404
34.7698 366.952 365.142
33.3995 365.591 366.753
75.1902 393.204 219.629
83.2275 396.622 224.918
83.6977 396.502 225.654
19.1108 357.872 388.857
58.4197 386.802 208.45
57.8841 386.117 208.635
58.8592 386.276 209.172
78.1884 393.462 221.4
82.3526 395.392 223.513
18.9014 356.493 392.848
40.5261 378.798 195.911
44.7842 381.061 197.84
45.4831 381.105 199.113
43.8916 379.842 199.338
50.7519 382.622 204.091
54.8022 384.636 205.832
55.07 384.014 206.735
58.3443 385.354 208.946
59.3302 386.026 209.588
74.4425 391.197 219.954
74.5598 391.276 219.839
80.4763 394.13 222.083
82.0633 394.759 222.889
82.6283 394.495 223.367
39.8462 378.43 193.057
44.8032 379.577 200.342
45.3454 379.536 201.03
44.5215 379.892 200.699
50.6763 381.945 204.52
50.7326 382.006 204.33
57.748 384.439 208.712
59.8387 385.461 210.129
72.9093 389.842 216.991
72.2837 390.048 216.593
73.6565 390.648 217.465
79.0652 392.071 221.501
82.854 393.722 221.91
34.0662 363.233 362.76
39.0379 377.309 192.662
37.5393 376.644 194.674
41.3684 377.999 197.909
41.8731 377.89 199.082
54.8966 382.645 206.333
71.7964 388.824 215.483
72.8015 389.297 216.418
74.0374 389.924 217.844
33.9596 374.15 191.776
32.6893 373.542 191.395
34.9201 374.379 193.054
37.5782 375.849 195.494
39.4281 376.209 197.616
48.3025 379.535 203.113
48.7902 379.892 203.361
72.0117 388.419 215.989
49.1304 369.611 340.089
32.6078 372.635 192.329
34.0316 373.247 192.866
41.4475 376.287 198.924
41.8642 376.088 200.613
48.0925 378.665 202.962
56.8991 381.563 207.531
57.7445 382.081 208.751
67.3306 385.795 214.26
28.5282 370.687 190.588
32.0758 371.659 193.406
35.7494 373.248 195.629
38.3109 374.336 195.882
40.419 375.042 198.75
42.9736 375.876 199.672
56.0586 380.29 206.964
4.85111 352.916 300.341
44.8507 365.65 347.826
30.3027 370.809 191.7
40.7525 374.226 199.013
43.4062 375.168 199.955
56.4694 379.732 207.303
65.0928 382.981 211.249
50.9507 368.325 339.075
19.729 353.659 361.109
16.5297 351.026 379.211
32.3773 370.636 193.132
35.776 371.874 195.172
35.5827 371.694 195.515
38.4117 372.797 197.25
47.9367 376.331 202.841
55.7838 378.835 206.185
49.4593 367.048 338.812
48.5652 366.193 339.83
49.4258 366.209 340.476
46.6022 365.777 340.657
48.3118 366.143 341.159
46.211 365.4 344.107
45.5482 364.316 348.33
22.6953 353.958 364.408
16.6382 350.775 379.008
16.0496 350.118 379.461
31.2905 368.893 192.785
33.1183 369.948 194.082
36.1299 370.976 195.858
57.3686 378.365 207.802
46.4485 364.725 340.302
20.2579 352.735 360.974
20.8307 352.785 361.919
22.0317 352.921 364.09
15.6758 348.731 384.296
31.612 368.35 193.188
53.8379 376.584 205.004
56.2798 377.288 206.862
6.46216 349.494 314.076
19.1268 351.418 359.62
18.887 351.013 368.595
18.2082 350.153 368.973
32.9856 368.364 194.05
37.4375 369.777 196.67
21.0921 351.5 362.927
18.3085 349.986 368.19
19.1424 349.9 370.39
33.8273 367.963 194.647
37.3956 368.972 196.463
37.5024 368.932 196.622
38.2689 369.511 197.122
42.4741 370.934 199.362
43.3176 371.143 199.727
49.7827 373.601 202.505
5.6058 348.235 308.47
37.7483 368.196 196.414
38.2423 368.69 196.92
46.9812 372.072 201.124
55.8864 374.944 205.478
5.78646 347.906 307.351
14.0137 345.763 376.046
33.3145 365.804 193.436
34.2875 366.609 194.365
33.6991 365.907 193.981
42.8785 369.501 198.878
47.1206 370.799 200.457
47.333 371.326 201.034
47.857 371.084 201.551
47.2118 371.26 201.977
4.14784 346.107 306.798
3.6403 346.24 307.575
19.2722 347.656 370.296
42.4914 368.476 198.06
43.1684 368.872 199.183
3.43729 345.385 307.306
43.3145 367.967 197.837
3.71759 344.772 303.281
4.47785 344.664 305.988
3.06928 344.348 306.982
3.64623 344.88 308.088
3.21545 343.923 306.12
3.19615 343.304 307.487
37.6831 364.191 194.608
1.87311 342.195 306.214
2.93004 343.159 306.507
2.88712 342.505 307.183
2.94389 342.528 305.266
1.98007 341.491 306.096
2.79307 342.283 307.343
2.78523 341.648 308.005
2.58425 341.571 307.027
4.22923 341.33 312.254
2.00227 340.628 306.736
2.42238 340.694 308.814
2.30181 340.077 308.457
2.21095 339.894 309.587
2.35351 339.96 308.58
3.57244 339.263 301.475
1.3966 337.641 309.676
1.0889 337.264 313.617
1.39353 337.315 314.506
1.66029 337.568 301.235
1.008 336.494 314.251
1.25862 336.54 315.137
-0.0740587 335.834 305.077
0.506155 335.953 309.064
1.22219 336.214 309.433
0.672621 335.677 314.011
0.503775 335.478 313.749
25.818 341.844 359.981
0.235847 335.364 305.505
2.12333 335.183 315.192
0.454933 334.868 306.008
2.05476 334.375 314.918
-3.32676 332.381 312.735
13.8934 330.753 396.142
11.927 329.658 400.561
13.1515 330.034 401.474
13.1309 330.064 402.432
13.6445 330.142 396.621
9.57611 326.457 401.507
8.30246 325.177 400.039
14.6474 327.029 389.251
9.28817 324.975 390.64
13.8435 326.486 388.793
8.28576 324.147 391.019
14.0611 325.751 388.549
13.3887 324.344 389.354
12.8398 323.336 389.05
5.32221 316.708 393.394
5.57483 315.735 393.135
6.31883 316.184 395.064
7.2742 319.794 329.804
0.812463 317.542 330.534
-0.0378755 317.398 331.216
5.38533 314.917 397.995
6.5425 319.069 330.319
6.50393 319.367 331.133
-1.99426 316.148 333.304
3.54092 313.211 396.028
4.96495 317.773 328.764
6.82035 318.871 329.539
3.66153 317.148 329.386
3.25935 311.89 396.07
2.79474 311.218 398.262
2.93694 311.264 396.634
2.44997 310.994 397.65
3.64845 315.954 321.604
3.39783 310.622 396.199
5.21242 315.45 320.715
4.61384 315.384 320.733
3.66776 314.777 321.433
3.25336 315.009 322.4
-0.961186 312.564 331.312
-1.32103 312.627 332.364
-9.14346 308.006 365.966
-8.84894 307.412 367.058
2.81144 313.841 321.172
3.07714 314.148 322.12
-2.61331 310.992 336.518
-10.1567 306.5 367.481
4.04948 313.6 320.968
0.249193 312.087 326.193
-1.63989 311.286 331.055
3.33178 312.63 321.334
-1.02577 310.756 330.492
-1.81574 310.514 332.074
-1.21612 310.154 329.769
-1.5961 309.889 330.323
-1.83577 310.077 331.066
-1.5768 309.411 332.104
-2.51609 309.642 332.96
3.05315 311.227 322.147
-1.3233 309.172 330.081
-1.62077 309.307 330.799
-2.52544 308.751 332.653
1.00881 310.078 323.167
-1.28842 308.469 329.641
-1.23818 308.6 330.555
-2.25565 308.017 332.4
-1.79532 308.267 333.169
-3.47152 307.607 333.766
-12.8269 302.422 361.344
-1.10792 307.83 330.921
-1.9835 307.836 331.595
-2.4282 307.227 332.152
-2.8619 307.39 332.96
-3.02695 305.81 347.744
-13.356 301.574 361.082
-3.45866 304.964 348.39
-11.3276 301.643 357.264
-19.7906 297.587 382.436
-21.0521 294.36 385.655
-2.05011 303.234 335.587
-5.65998 298.629 361.996
-6.00188 297.945 361.784
-5.60258 297.952 362.451
-5.77486 297.769 363.132
-5.28866 298.046 363.109
-4.93074 297.537 363.622
-6.41268 296.9 363.208
-6.62686 296.308 363.714
-7.62536 296.21 364.43
-7.02232 296.352 364.27
-5.48306 298.093 337.035
-6.72091 295.966 362.286
-7.87356 295.589 365.105
-5.49864 297.304 337.752
-24.3992 289.051 376.19
-26.3844 287.568 375.934
-7.19992 293.269 359.127
-7.55301 290.018 355.145
-8.92796 285.633 357.958
-8.05185 285.747 359.021
72.3508 468.571 393.563
71.9891 467.356 394.455
71.6655 462.903 398.082
69.7671 461.267 396.286
70.6849 461.409 397.543
80.0973 466.375 357.99
72.9208 449.591 399.118
73.1836 448.913 400.468
73.4676 449.455 402.208
238.412 537.237 335.47
237.8 536.664 335.508
235.201 533.251 338.871
227.332 528.484 329.881
235.747 532.149 339.61
173.34 501.849 305.195
236.1 531.375 339.253
216.847 522.465 324.158
214.948 520.598 324.48
218.945 523.128 324.749
226.916 526.178 331.581
227.487 526.436 332.754
221.46 522.85 327.906
65.1163 432.944 387.494
174.603 500.147 304.597
175.5 498.87 301.274
213.483 515.958 325.373
215.806 515.603 331.049
176.338 496.796 302.517
176.11 496.738 302.579
199.876 505.711 316.512
177.369 492.526 320.011
177.815 490.623 326.516
176.94 491.011 315.806
175.608 489.159 324.54
176.288 488.622 329.627
176.661 489.168 318.432
175.118 488.398 320.003
175.354 487.86 314.592
176.087 487.734 317.889
174.504 486.899 320.547
175.478 486.73 323.763
173.638 485.913 323.853
175.765 487.244 315.911
175.216 486.555 318.808
173.383 484.121 324.711
169.092 482.399 313.901
174.79 484.785 316.947
174.687 485.129 318.392
176.26 485.708 320.844
171.71 482.785 315.537
175.095 484.117 319.175
49.3007 413.466 380.722
158.549 477.435 280.176
157.378 475.647 280.565
154.331 474.82 280.268
149.196 470.224 275.519
150.395 470.725 276.195
155.07 472.425 280.192
145.71 466.586 272.605
147.335 467.752 275.917
152.169 469.242 277.866
155.843 470.86 280.595
144.43 465.06 272.23
147.077 465.929 275.433
149.478 466.989 277.352
149.92 466.932 280.669
144.474 455.636 353.237
142.115 463.989 270.028
145.646 465.333 273.754
141.736 454.24 350.039
143.635 454.217 352.745
140.269 462.021 268.826
141.127 462.217 270.381
141.772 462.401 272.107
142.468 462.59 273.806
142.496 462.599 273.783
146.643 464.512 276.676
148.783 465.248 277.296
148.081 464.959 279.079
150.361 465.636 281.196
142.051 452.584 351.824
142.385 452.702 352.806
141.69 452.589 353.507
132.117 457.763 260.216
133.032 458.222 261.662
140.649 460.833 271.589
141.466 461.142 273.362
146.847 462.74 276.906
146.671 462.697 276.515
141.387 451.454 351.352
141.685 451.401 353.292
131.598 456.66 259.871
132.258 457.07 261.319
132.161 456.491 262.287
140.88 450.261 352.606
129.061 444.559 353.218
141.771 459.061 273.974
137.375 451.816 317.055
127.763 443.011 352.536
136.534 451.121 316.183
129.489 443.83 345.032
132.638 454.199 265.69
131.47 452.175 267.046
132.42 452.232 267.796
131.413 448.06 301.833
131.485 451.323 266.72
133.096 451.732 267.67
130.007 446.355 303.597
131.372 445.335 312.527
127.064 449.434 259.078
126.872 448.298 260.308
126.883 448.998 261.367
126.736 448.632 261.857
127.462 448.643 262.536
128.183 448.605 263.502
131.127 449.913 267.535
138.399 453.498 269.893
138.829 453.598 270.282
126.898 447.607 262.213
125.667 445.679 270.858
126.183 445.763 272.377
132.902 442.498 328.434
128.393 446.713 263.75
126.013 445.605 257.026
125.399 445.663 256.663
124.56 444.469 261.014
125.756 444.991 267.742
121.667 442.211 258.222
122.171 441.507 261.396
120.312 439.902 269.344
121.026 440.54 270.299
120.76 439.223 276.954
128.163 439.766 300.705
119.249 439.674 255.327
119.998 440.323 256.693
120.626 440.165 257.652
120.656 440.227 257.599
121.868 440.155 262.174
120.422 437.832 268.728
134.564 441.01 304.094
132.678 439.322 296.525
130.072 438.738 296.306
115.958 436.094 248.236
119.489 437.376 255.404
124.059 435.845 284.822
127.689 437.589 286.998
127.45 437 287.412
132.905 438.458 296.494
115.745 435.149 253.975
127.718 437.072 286.048
21.5634 382.467 327.123
23.3822 383.439 329.082
22.5799 382.272 332.988
19.9432 380.665 329.741
20.7217 380.665 331.956
21.4203 381.507 332.725
114.653 432.799 245.949
21.0662 380.259 331.466
20.8989 380.314 332.477
110.067 428.188 247.708
20.1416 377.078 333.336
111.575 427.225 247.719
20.3229 376.69 333.704
20.95 376.574 333.888
109.713 425.099 249.398
114.928 427.328 251.089
19.0482 375.06 332.967
20.5926 375.792 334.63
20.6061 375.769 334.378
20.9891 376.203 335.114
105.815 423.149 243.367
109.105 423.871 248.952
113.557 426.123 249.818
112.146 425.216 249.291
86.1492 409.932 283.366
18.912 374.385 333.529
19.8251 375.043 335.051
114.262 425.024 249.316
80.8858 403.316 311.4
83.3686 404.152 312.888
18.5714 373.654 330.941
19.0217 373.601 334.203
83.4108 405.909 292.467
82.9508 405.974 293.683
82.798 405.089 297.875
17.7239 372.263 333.908
101.736 419.639 238.929
83.2303 405.134 293.228
82.8566 404.205 297.638
80.6779 402.559 308.62
81.046 402.542 308.821
17.6836 371.638 331.51
17.8535 371.728 333.383
98.3596 417.129 235.071
100.927 418.428 235.072
100.173 417.921 236.28
109.092 420.523 245.592
82.9954 403.426 296.09
83.1049 403.731 297.013
79.6881 401.515 305.697
80.174 400.942 310.848
17.6612 370.778 334.162
38.9598 377.29 362.199
38.5974 375.796 370.733
89.4703 413.86 223.169
99.7644 416.765 235.441
100.568 416.813 240.335
108.687 419.546 245.444
111.707 420.921 245.935
83.0094 402.874 297.829
82.8938 402.183 298.395
38.2722 375.219 367.606
38.2542 375.47 369.156
22.2327 365.347 392.988
23.057 365.994 393.984
96.0312 414.265 234.973
99.3516 415.745 239.036
103.322 416.545 241.103
102.409 416.205 240.386
107.056 418.336 244.42
112.362 419.831 248.888
36.959 374.182 364.928
37.5712 374.258 368.776
22.2302 364.781 393.664
96.0411 412.615 239.227
91.1891 409.25 253.493
36.6724 373.014 368.398
20.9362 363.44 393.123
87.3935 410.313 223.24
87.4576 409.371 227.092
85.9899 408.945 226.428
104.124 415.409 241.603
105.963 416.182 243.366
106.778 416.334 244.271
87.6433 406.627 255.973
87.0511 408.371 228.363
92.2774 408.633 250.041
36.5555 371.254 368.412
20.5825 361.497 396.2
88.4211 407.907 229.088
89.2847 408.57 232.211
91.2361 408.741 232.579
90.973 408.406 233.477
93.4039 409.987 233.731
96.4721 410.229 239.633
90.4616 406.238 251.054
78.8619 404.528 219.539
95.0147 409.06 238.165
94.3499 408.659 241.304
82.0212 404.805 222.142
81.0311 403.702 222.292
83.9308 404.453 227.482
87.5278 406.323 228.715
90.5829 407.335 233.12
93.2858 408.011 234.525
75.5254 401.653 217.042
78.9525 402.305 219.82
81.4458 403.345 225.022
82.3054 403.17 225.886
83.0399 403.884 227.168
92.2392 405.834 238.981
87.5375 402.093 254.58
71.8218 399.445 214.496
75.298 400.733 217.532
89.1114 405.311 229.481
67.0653 385.729 321.989
70.8548 398.138 214.19
71.7276 398.186 216.319
72.9022 398.026 217.969
79.5052 401.071 222.42
83.2479 401.724 227.556
68.0488 396.381 208.078
67.6717 395.941 212.003
67.8274 396.014 211.954
68.1048 395.936 212.248
73.1101 397.894 218.751
76.3574 399.224 219.347
80.6708 399.766 224.13
83.7407 401.199 227.14
85.7208 401.462 227.854
88.0067 403.017 228.733
93.0523 403.678 240.975
54.9138 376.762 337.258
67.156 395.428 207.855
64.6644 393.767 211.98
66.2238 394.289 212.428
68.663 395.3 213.365
68.5366 395.271 213.146
68.0236 395.262 215.052
69.8323 395.929 215.774
69.162 395.007 215.535
73.0772 396.471 218.544
80.3579 398.881 223.847
81.3736 399.797 224.703
83.9487 400.59 226.778
84.9298 400.483 227.518
68.331 395.313 208.562
65.0491 392.833 212.172
67.2178 394.18 212.201
66.5813 394.103 212.216
66.6634 393.596 213.316
66.9547 393.742 212.965
67.0745 394.212 213.206
72.5941 395.48 218.234
73.3472 395.495 218.813
73.8686 396.375 219.079
74.6945 396.385 219.638
76.8177 397.24 220.921
80.274 397.854 223.467
84.2197 400.022 226.218
84.2652 399.481 227.217
86.9508 400.447 227.881
65.7492 392.587 213.174
66.6855 392.498 213.952
66.5603 392.42 214.062
74.4189 395.518 219.327
75.0082 395.474 220.01
77.4515 396.474 221.141
86.8136 399.512 227.583
87.1451 399.992 228.706
86.5655 399.063 228.416
87.8299 399.984 229.487
91.698 401.669 230.024
60.1584 389.703 206.558
64.959 391.66 212.923
63.9686 390.645 212.739
65.8264 391.534 213.754
70.5462 393.604 216.422
71.6371 394.008 217.408
72.2851 393.577 217.935
72.8866 394 218.391
73.8197 394.683 219.093
77.0514 395.555 220.844
77.8836 395.493 221.28
78.3193 396.242 221.68
79.0069 396.031 222.14
79.9904 396.034 223.687
81.6326 396.731 224.041
92.8041 401.277 229.699
45.0084 368.988 342.965
59.5998 389.573 205.039
59.196 388.498 206.186
60.4932 389.092 209.423
61.3709 389.597 210.456
60.3961 388.616 210.208
62.0603 389.453 211.227
63.5356 389.64 211.925
63.1979 389.613 212.41
66.1441 390.603 214.266
67.1839 391.623 214.443
70.3125 392.544 216.226
71.9473 392.558 217.713
76.7648 394.684 220.557
77.5274 394.739 221.081
78.5643 395.269 221.728
81.2324 396.248 223.979
89.98 398.863 228.459
51.1275 371.026 338.686
45.9133 368.369 343.578
31.2943 359.616 368.566
55.1204 386.172 205.166
55.8518 386.68 207.104
59.7681 388.083 209.743
59.9155 387.811 209.94
60.1886 387.756 210.401
61.461 388.59 210.96
62.1655 388.839 210.983
62.915 388.767 211.661
65.686 389.865 213.947
66.867 390.377 215.14
68.732 391.158 215.749
68.4184 390.544 215.12
71.4192 391.626 216.943
73.4039 392.49 218.275
76.0185 393.053 219.919
77.4368 393.959 220.735
77.4423 393.696 220.709
78.189 394.549 221.309
79.8712 394.805 222.45
81.2296 395.401 223.192
82.5633 396.047 223.956
83.4324 395.957 224.5
83.2771 395.632 225.306
84.1421 396.44 226.389
85.0423 396.089 225.762
85.9248 397.154 226.854
52.2396 370.671 337.821
32.2104 359.506 367.212
19.0874 352.41 383.325
56.9594 385.815 206.452
60.366 386.802 210.576
60.3308 387.284 210.049
61.0311 387.612 210.852
69.051 390.327 215.441
69.4913 390.583 215.807
71.725 390.778 216.805
72.3468 391.718 217.491
73.3271 391.459 217.693
74.6258 392.009 220.242
76.8829 392.889 220.387
78.791 393.418 221.263
79.5962 394.234 221.779
82.9252 395.086 224.225
86.4495 396.466 226.233
86.5212 396.498 226.213
51.7689 369.626 338.271
46.6913 367.379 343.301
18.0881 351.077 383.146
51.3088 383.368 204.429
58.1061 386.044 207.953
56.5141 384.93 208.229
58.8644 385.858 208.77
60.5999 386.365 210.214
61.0564 386.594 211.039
71.304 390.096 216.297
70.5052 390.247 215.95
72.8255 390.764 217.145
78.9905 393.006 221.76
78.982 392.999 221.759
85.2226 395.298 224.193
15.8781 349.649 380.748
16.6236 350.142 381.303
16.052 349.477 382.402
18.9255 350.876 384.984
43.2418 379.792 197.985
47.463 380.789 202.528
49.1857 381.658 203.116
50.3957 382.021 203.789
51.6466 382.467 205.18
54.009 383.207 205.68
53.8536 383.032 205.938
54.4306 383.093 206.501
57.2312 384.196 208.408
57.8963 384.918 208.668
59.5396 385.647 209.591
58.3798 384.398 209.249
58.9947 385.32 209.481
61.1914 386.171 211.007
61.3567 385.57 210.59
62.624 386.483 211.747
67.0348 387.429 214.344
71.7634 389.32 216.114
71.1715 389.499 215.768
73.4681 389.658 217.269
74.6499 390.61 219.41
77.9374 391.943 220.444
78.9289 391.644 220.773
22.4854 353.234 365.563
16.1954 349.004 383.529
14.9154 348.394 385.65
39.2525 378.162 194.836
43.6317 379.019 196.885
43.0472 378.765 198.977
46.7281 379.951 202.278
47.992 380.393 203.628
51.4108 381.84 204.892
50.8779 381.041 204.655
52.6559 382.325 205.59
53.552 382.168 206.308
58.5186 384.105 208.904
59.2964 384.102 209.636
60.8671 384.832 210.258
62.3426 385.717 210.994
66.74 386.701 214.01
73.429 389.093 216.816
75.184 390.133 218.352
80.6625 392.129 220.734
47.8714 365.24 340.909
47.3626 365.436 342.727
21.7736 352.882 362.938
18.7447 350.429 370.572
16.6875 348.755 383.77
37.9598 376.472 191.832
36.0158 375.588 192.743
39.543 376.744 196.503
38.884 376.317 196.636
39.9528 377.391 196.783
40.8289 377.085 199.077
46.0308 379.141 201.989
45.2228 378.255 201.805
47.6917 379.873 202.883
50.7366 380.801 204.905
50.4265 380.297 204.405
51.9801 380.757 205.273
53.232 381.517 205.927
53.6584 381.144 206.802
59.9395 383.383 209.561
58.9499 383.446 209.214
61.2009 383.974 210.265
60.2402 384.035 209.943
61.6732 384.705 210.597
63.2275 384.624 211.393
67.0868 386.265 213.476
67.4992 386.561 214.545
71.5375 387.878 215.241
69.6226 386.99 214.767
72.2325 388.248 215.953
77.3154 389.463 217.804
29.4342 372.342 190.866
35.2223 374.758 191.267
35.8098 374.954 191.857
36.549 374.647 195.233
40.881 376.515 198.414
46.0754 378.095 202.539
48.6223 378.797 203.554
61.4785 383.092 210.279
60.7156 383.239 209.923
61.8863 383.793 210.64
66.9514 384.941 213.995
70.1152 386.172 214.708
71.7111 386.622 215.15
71.7111 386.622 215.15
71.3413 386.952 215.879
71.6976 386.708 215.657
72.5453 387.294 216.064
73.109 387.578 216.642
49.0506 364.242 339.923
34.152 373.063 193.87
35.1506 374.15 194.183
36.5312 374.552 195.26
35.9643 373.902 194.996
38.89 375.333 197.3
41.5855 376.171 198.805
41.8128 375.99 199.776
48.903 377.966 203.654
57.7022 381.377 207.966
61.1027 382.406 209.915
62.4249 383.031 210.572
63.27 382.926 210.911
70.0032 385.14 215.741
70.0032 385.14 215.741
17.3031 347.142 377.784
29.8199 370.95 191.395
35.6728 372.797 194.664
36.7055 373.679 195.58
38.2994 373.702 196.813
40.9264 374.638 198.281
41.2697 375.073 199.228
57.965 380.714 208.422
62.0308 382.334 210.218
63.7578 382.637 210.254
65.881 383.022 212.307
33.2924 371.769 193.445
34.6319 371.601 194.921
36.7387 372.45 196.639
39.6085 373.436 198.361
40.8411 373.629 198.709
41.2343 374.141 199.474
42.1104 374.035 199.861
46.7496 375.766 202.157
49.1795 376.728 203.577
52.4606 377.894 205.153
54.2694 378.75 205.722
53.8072 378.001 205.46
55.2911 379.189 206.57
54.9215 378.522 206.206
55.0676 378.611 206.212
56.0773 379.04 206.974
64.0853 381.891 210.013
63.6656 381.474 209.5
64.5678 382.432 210.585
5.93966 348.859 307.654
2.68046 346.878 308.839
18.3963 347.117 368.726
36.1189 371.536 196.428
39.9747 372.513 198.469
41.6097 373.309 199.583
47.0067 374.918 202.145
47.3784 375.583 202.514
49.5179 375.913 203.46
53.4243 377.421 204.907
52.1547 377.229 204.798
54.5589 377.842 205.966
54.2646 377.29 205.307
55.0174 377.656 206.156
56.64 378.793 207.443
30.1326 368.508 192.676
36.8877 370.848 196.679
40.0687 371.64 198.349
40.6235 372.354 198.747
40.9539 372.178 198.903
43.8837 373.149 200.609
44.6 373.803 200.757
54.6098 376.936 205.873
56.1947 377.445 206.394
56.3634 377.218 206.056
64.7682 380.462 209.655
4.33925 346.933 304.47
30.6546 368.041 192.621
32.619 369.152 193.883
32.6141 368.674 193.321
33.3676 369.075 194.387
38.4411 370.404 197.298
39.5397 370.938 197.942
39.7989 370.986 198.092
41.5572 371.462 198.874
41.8387 372.101 199.214
42.4833 371.926 199.554
49.6107 374.458 202.748
52.813 375.493 204.123
53.5369 375.976 204.554
54.4435 376.347 205.483
55.9378 376.779 206.068
54.8946 376.042 206.013
64.3922 379.968 208.879
64.1397 379.332 208.421
64.3694 379.837 209.084
30.3423 367.429 192.349
31.1809 367.238 192.945
33.7841 368.324 194.496
35.3676 368.95 195.401
36.1041 368.871 195.887
36.6217 369.484 196.259
37.8862 370.08 196.816
39.2099 370.297 197.558
39.1265 369.97 197.494
40.0491 370.212 197.838
41.2359 370.833 198.472
44.7499 371.743 200.256
46.6715 372.285 200.856
45.5193 372.232 200.703
47.0881 372.97 201.228
47.6007 372.744 201.6
47.879 373.347 202.076
53.5923 375.384 204.357
53.4536 374.809 203.919
52.4532 374.835 203.774
55.4783 375.269 204.932
54.7243 375.451 205.628
56.8039 376.374 206.253
56.5413 376.013 206.2
63.8111 378.754 207.805
31.681 366.487 193.131
37.2163 368.435 195.94
38.9353 369.087 197.339
39.0069 369.1 197.298
45.1787 370.989 200.097
44.5851 371.143 199.787
48.055 372.502 201.923
50.3946 373.423 202.783
55.0436 374.563 204.591
30.5146 365.882 192.278
33.0656 366.451 193.821
34.7622 367.321 194.65
35.2948 367.086 195.082
37.6434 367.7 195.838
46.0725 370.949 200.291
48.2941 371.663 201.872
53.7567 373.512 203.236
29.9684 364.755 192.382
31.9187 365.637 193.31
34.9193 366.416 194.759
34.9244 366.419 194.759
35.0251 366.393 194.771
35.7685 366.323 195.064
40.054 367.945 197.137
41.3405 368.544 197.822
45.7211 370.314 199.854
47.669 370.585 200.911
18.1918 350.167 288.573
18.906 350.428 289.749
2.92969 342.383 308.312
3.38393 342.245 311.051
31.4453 364.779 192.844
32.1214 364.326 192.901
32.3409 364.901 193.285
33.435 364.933 193.524
34.6442 365.801 194.376
34.6412 365.797 194.38
34.4336 365.239 193.882
35.5029 365.723 194.654
35.5562 365.742 194.651
40.9845 367.901 197.304
40.552 367.215 196.84
43.9972 368.631 198.907
46.9434 369.806 200.623
48.0366 369.781 200.88
51.2107 370.785 202.12
2.70056 340.783 309.863
31.798 363.705 192.504
33.1824 364.355 193.101
35.0422 365.068 194.192
40.2398 366.611 196.26
41.0802 366.516 196.483
41.161 367.125 197.166
2.43608 340.06 310.599
32.606 363.615 192.788
32.6005 363.605 192.61
32.2515 362.98 192.398
33.3423 363.496 192.888
1.86802 338.867 312.003
36.798 363.798 193.718
36.8153 364.246 194.349
37.6662 364.144 194.586
2.05979 339.246 307.246
35.7119 362.809 192.891
37.2061 363.492 194.305
37.1488 363.419 194.232
1.56376 337.104 309.466
1.22985 336.881 309.356
-4.21056 333.963 311.681
-2.35927 334.621 312.26
-3.66133 333.85 311.986
-1.10117 334.656 312.859
5.57969 336.621 317.736
27.3382 340.873 360.501
-3.87973 333.41 311.529
-2.0604 333.905 312.629
0.989697 334.906 313.692
5.72988 335.892 318.483
14.6024 331.458 395.04
-3.47638 333.045 311.091
-2.68627 333.088 312.953
3.69098 335.224 316.511
3.71616 334.514 317.427
-2.51546 332.368 313.305
3.79869 333.812 318.112
8.27264 335.133 320.543
5.70296 334.258 318.706
13.844 328.344 390.302
2.92367 312.466 396.494
6.75974 320.723 325.834
2.87665 311.373 395.478
7.30963 318.509 324.108
4.77807 317.579 327.547
-2.34896 313.878 334.436
3.7367 309.572 394.112
3.3888 315.293 323.114
-1.44181 312.233 335.453
3.73264 308.617 393.777
4.07294 308.703 394.551
205.478 395.683 166.054
-0.788667 312.132 334.65
-5.67563 309.034 344.511
-11.4018 304.813 368.085
-5.23925 308.88 344.977
-5.28446 308.691 344.943
-15.218 302.761 370.932
-15.2642 302.743 370.939
-2.16295 308.544 346.556
-14.2204 302.687 367.134
-13.3409 303.147 367.577
-12.8706 303.581 368.031
-14.7298 302.315 370.492
-15.435 301.942 371.23
-15.537 302.086 371.709
-2.35712 308.197 346.102
-13.8552 302.142 367.509
-13.4414 302.597 368.081
-13.5617 302.038 368.597
-15.0291 301.77 370.447
-1.90959 308.613 331.863
-15.4679 300.892 368.419
-19.6234 298.259 382.501
-19.5546 298.353 382.714
-14.9549 300.565 368.838
-20.1176 297.382 382.242
-19.9747 297.703 383.139
-3.19339 306.203 344.018
-20.4789 296.857 382.91
-21.3882 296.233 382.452
-20.1554 296.47 383.401
-2.47053 306.656 334.579
-21.4027 295.743 382.911
0.522987 306.949 329.76
-4.0328 303.273 353.314
-21.3875 295.093 382.672
-22.09 294.388 385.907
1.50707 306.697 328.997
-21.2885 294.146 386.454
-21.34 293.662 386.987
1.31306 305.541 328.761
-21.3606 292.583 387.462
0.479466 303.36 328.612
-23.5207 291.68 374.042
-23.7753 291.574 374.968
0.157107 302.849 330.393
-23.0073 291.074 376.965
1.8906 302.644 326.429
-23.5494 290.699 374.758
-23.2207 290.521 377.524
-24.034 289.608 374.672
-23.3842 289.524 376.475
-23.2597 289.759 377.282
-5.11073 296.45 357.353
-26.3733 288.118 375.428
-27.8256 286.773 375.593
-6.6221 291.253 354.562
-8.16414 290.252 360.503
-5.82626 292.263 334.917
-8.63593 289.405 360.274
-5.4376 291.982 333.619
73.4293 467.549 397.854
72.7063 469.034 386.509
72.9393 464.526 398.331
69.9313 462.636 395.22
68.8235 458.981 395.093
77.6458 465.171 369.913
83.3827 469.972 353.077
80.5452 466.136 359.215
81.3071 466.571 359.221
236.283 537.849 333.195
236.197 537.548 333.115
237.514 536.554 336.788
229.025 531.469 330.665
232.565 530.843 337.138
236.726 533.483 337.829
236.87 533.048 339.324
235.172 531.32 337.507
235.308 531.185 338.67
220.893 522.401 326.171
223.112 524.047 327.479
217.871 520.615 324.785
221.648 521.804 327.441
223.341 522.789 329.552
219.904 520.781 329.527
215.404 517.495 325.864
218.592 519.116 329.309
216.883 516.845 328.976
213.666 515.089 324.784
215.745 515.85 325.92
216.998 516.79 327.432
213.284 513.726 325.729
51.6744 416.305 381.735
202.67 507.753 315.582
204.341 509.099 315.124
206.536 509.817 316.883
196.666 503.936 310.06
197.101 503.576 314.471
195.399 501.337 312.591
195.159 501.258 310.478
176.024 491.061 310.984
176.54 490.759 312.47
175.864 490.47 312.355
175.345 489.863 313.798
178.075 491.054 313.742
174.472 489.737 309.049
173.488 488.748 310.429
177.675 490.195 315.463
174.628 486.01 325.645
174.381 489.313 307.03
173.626 488.266 307.62
172.966 487.982 308.739
172.798 486.734 307.715
173.087 486.223 311.388
173.494 486.528 313.289
174.868 486.684 315.274
173.842 483.799 328.351
172.709 485.907 309.476
172.83 485.158 310.136
171.129 484.244 311.542
173.349 485.427 313.063
172.631 484.232 313.927
173.071 482.8 326.014
173.831 486.166 303.74
171.903 484.786 304.668
174.079 485.858 305.242
172.037 485.001 306.654
173.6 485.868 306.737
171.071 484.058 309.421
172.421 483.834 311.009
175.746 484.882 318.24
150.759 461.736 369.642
172.156 483.574 309.938
172.128 482.71 310.514
171.161 482.382 313.351
148.555 459.727 368.318
151.735 459.958 375.192
171.359 482.585 307.816
172.742 482.406 309.107
172.385 482.026 305.72
171.824 481.642 307.072
172.398 481.058 307.636
174.27 481.778 309.803
143.667 458.199 348.962
137.214 456.885 333.094
137.071 457.194 333.79
142.746 456.969 350.743
137.198 456.182 333.33
137.499 456.583 334.327
137.194 455.843 332.535
142.654 452.607 351.179
118.861 436.302 369.086
53.7107 404.718 365.717
144.327 466.621 267.2
154.206 469.921 278.895
120.668 436.096 366.812
137.201 459.763 264.644
139.92 461.809 264.352
132.03 458.411 257.394
140.807 459.645 269.67
144.242 460.376 276.149
131.486 456.704 258.109
135.833 457.536 265.29
137.614 457.145 269.415
139.791 457.999 271.042
144.48 459.738 277.097
133.456 446.865 313.878
130.105 455.17 257.796
131.618 455.34 258.751
132 456.224 259.146
138.406 456.401 270.624
142.399 458.168 273.284
131.01 454.459 258.777
142.294 457.508 273.213
130.873 445.083 307.432
138.963 455.173 270.225
134.344 452.516 267.827
142.17 456.18 270.666
128.892 444.534 298.01
128.937 450.301 262.81
125.888 448.216 264.141
127.622 448.639 266.709
128.962 448.658 267.626
128.962 448.658 267.626
129.007 447.955 267.209
129.055 448.064 267.093
128.855 440.29 299.519
126.167 445.955 257.327
129.465 439.819 300.197
131.157 440.085 302.286
124.831 444.48 258.525
123.609 443.644 260.598
124.636 443.335 262.842
120.451 438.887 261.339
118.021 438.732 251.224
118.367 437.185 261.294
115.097 436.09 250.07
121.112 434.105 271.799
114.687 434.986 249.43
115.167 434.193 253.477
120.868 432.487 276.164
16.819 375.063 328.982
18.1529 375.916 329.777
17.3068 375.864 329.222
17.0859 375.431 329.069
115.063 433.618 252.606
17.5167 375.013 329.624
18.3105 375.275 330.08
17.832 374.35 329.985
19.5344 374.382 334.644
18.4571 373.895 330.16
20.9277 362.086 398.142
18.7297 372.899 331.5
18.7147 372.567 334.803
19.365 361.364 395.191
114.783 429.622 253.289
16.3724 371.449 330.014
18.9542 364.213 376.265
19.5453 360.631 395.484
20.1832 360.7 396.027
18.7412 363.199 375.797
18.9978 359.818 395.211
20.495 359.982 396.348
108.332 425.83 246.726
109.107 425.48 248.055
107.718 423.013 244.754
105.94 422.705 245.009
82.892 402.686 296.723
21.5307 357.139 393.865
110.753 421.231 245.607
115.958 422.153 249.363
100.693 417.17 235.875
107.428 418.203 246.181
94.6849 414.354 229.88
93.541 413.615 231.368
93.274 413.373 231.349
93.1052 412.712 232.261
96.4588 414.568 233.344
85.6291 409.601 226.573
93.9303 412.294 232.427
94.3799 411.297 238.795
91.4855 408.269 244.582
89.3935 409.11 229.429
92.0166 408.219 241.249
97.0108 410.401 241.28
91.0345 407.361 245.376
94.501 409.299 236.726
19.1639 351.127 385.048
76.3393 403.119 216.115
80.8663 403.609 223.772
22.7238 355.2 361.652
22.6099 355.149 362.692
74.62 401.664 215.993
80.7325 403.357 222.032
80.609 403.298 221.879
78.9606 402.136 223.624
86.5837 404.505 228.609
87.0219 404.466 228.761
16.6123 348.227 382.423
75.4277 401.591 216.263
79.6515 401.812 224.81
19.4009 352.338 359.909
79.3261 400.42 225.686
79.8034 400.523 225.775
88.4143 403.988 229.041
89.8633 404.503 229.898
88.5713 403.73 229.97
73.0649 398.5 217.472
90.4805 403.623 230.436
67.9515 397.345 207.242
70.5723 397.714 209.362
70.3139 396.686 217.458
73.1961 397.092 218.369
89.041 402.061 229.977
92.2864 403.352 231.157
69.4097 396.508 209.097
69.2811 395.695 215.776
92.0252 402.404 230.872
93.2589 402.787 231.37
93.6764 402.526 232.061
66.0285 394.24 207.64
75.7421 396.799 220.146
76.5438 396.647 220.697
79.4884 397.046 223.575
81.6245 398.126 224.545
90.2721 400.603 229.615
92.5044 401.616 230.66
64.5345 393.34 206.935
76.3502 395.972 220.311
76.9622 395.662 220.841
87.8907 399.238 227.959
88.7583 399.08 228.337
60.7114 390.817 205.329
64.8909 391.695 210.449
67.7998 392.446 214.752
87.8786 398.259 227.726
64.7078 390.48 213.338
87.0536 397.113 227.144
61.7146 389.841 207.541
65.0179 390.102 213.235
64.9629 389.852 213.126
78.9908 394.377 221.719
87.5192 396.787 226.254
6.27145 349.612 308.9
53.7455 386.154 203.327
56.1147 387.204 205.378
60.9111 388.547 208.546
65.2152 389.111 213.657
64.6563 388.335 214.622
64.3793 388.125 214.684
66.6367 389.75 214.6
71.1174 391.062 216.334
76.1485 391.876 220.349
81.9789 394.215 222.3
50.6719 383.664 203.604
52.4401 384.534 204.148
53.2071 384.851 204.421
57.7244 386.743 206.729
69.6983 389.782 215.488
69.0404 389.534 214.98
75.0486 390.753 219.427
78.3559 392.29 220.985
83.745 394.292 223.562
86.1414 394.885 223.581
6.54474 348.392 310.16
47.9187 382.525 202.762
48.6711 382.336 203.275
52.8609 383.634 205.404
54.9281 384.549 206.872
55.6121 384.695 207.044
69.3852 388.792 215.278
74.623 390.004 219.429
76.3152 390.835 220.061
78.0651 391.475 220.206
82.0246 392.945 221.066
5.62226 348.024 304.798
49.5397 382.245 203.585
52.4696 382.685 205.163
55.944 383.736 207.392
56.1884 384.275 207.802
63.9718 385.97 212.238
62.931 385.988 211.98
68.647 387.667 213.969
69.5396 387.886 214.479
77.3459 390.531 218.473
78.2749 390.793 218.945
4.39252 345.468 311.461
51.4301 381.754 204.964
51.4923 381.643 205.067
52.1073 381.427 205.818
62.5176 384.779 211.073
63.4639 385.228 211.877
64.8899 385.822 212.622
71.1145 387.718 214.482
40.8644 378.253 195.21
43.8059 378.451 199.639
43.7929 378.861 200.318
44.5707 378.484 201.11
47.1173 379.112 202.691
57.0514 382.134 208.005
57.5693 382.999 208.264
58.2844 382.843 209.04
58.9246 382.596 209.714
62.8675 383.96 210.964
68.1561 385.682 215.017
1.92901 343.519 307.816
43.8935 377.77 200.841
50.3956 379.686 205.617
51.093 379.492 206.318
55.5494 381.159 206.996
58.3331 381.821 209.456
63.6191 383.825 211.264
64.9172 383.849 211.421
14.5016 331.912 400.612
13.8441 331.614 401.23
14.6031 331.801 402.903
37.6871 375.157 196.622
46.4472 377.75 201.971
47.8267 377.774 202.834
56.7021 380.638 207.199
57.7595 381.05 209.187
58.2499 380.762 209.95
59.2177 381.641 209.982
3.41806 343.225 307.632
15.5481 332.595 395.383
13.3769 331.812 397.874
12.3008 330.479 400.08
13.1024 330.713 400.93
13.3954 330.446 403.816
13.332 330.425 403.866
13.332 330.425 403.866
29.8718 372.006 190.924
39.166 375.141 197.136
39.3283 374.493 197.843
41.8755 375.335 198.417
41.1009 375.162 199.667
44.576 376.047 201.174
43.5608 375.846 202.652
43.5767 375.855 202.641
48.4822 377.332 202.998
49.7245 377.475 203.934
57.7297 380.055 208.106
62.6654 382.125 209.501
65.6917 382.663 211.654
3.47233 342.965 303.452
15.3405 332.182 393.93
13.8552 330.691 399.039
32.6559 371.8 193.212
34.4178 372.673 193.819
46.5963 375.753 201.988
57.8616 379.136 208.077
65.2748 382.183 211.085
2.73657 340.801 311.413
13.7139 329.885 398.783
11.2064 328.649 401.919
30.5666 370.339 192.51
34.7112 372.088 194.482
42.7242 374.116 200.001
44.1115 374.625 200.68
43.5934 374.083 200.45
45.3504 375.221 201.259
44.82 374.439 201.065
46.167 375.016 201.734
48.1683 375.469 202.818
48.5951 376.183 203.12
50.7598 376.512 204.016
49.9072 376.592 203.853
51.8532 376.875 204.193
56.3353 378.345 206.632
56.9366 378.107 207.085
64.2718 380.841 209.088
9.57825 327.452 400.782
10.4709 327.606 401.621
30.0598 369.572 192.31
29.1727 369.64 192.085
38.5643 371.792 197.536
43.0272 373.276 200.282
46.6772 374.252 201.765
45.7085 374.309 201.428
46.7972 374.816 202.153
48.9436 375.274 203.26
51.0578 375.663 203.825
52.3056 376.594 204.462
58.1786 378.226 208.114
8.92296 326.26 400.458
10.86 327.092 402.196
30.8982 369.441 192.632
46.4308 373.614 201.457
47.3807 374.095 202.118
50.0506 375.145 203.21
51.4743 374.864 203.607
50.7628 375.008 203.393
52.0636 375.521 204.187
60.0507 377.808 207.09
8.43532 326.116 399.18
10.7418 326.54 402.585
30.0974 367.982 192.303
43.9872 371.881 199.955
47.3833 373.585 201.677
50.1724 374.26 202.949
50.874 374.08 203.246
56.01 375.517 205.881
17.1767 347.313 287.243
-0.322194 336.347 312.058
7.48808 324.886 399.178
34.5162 368.764 194.839
35.1926 368.549 195.329
45.724 371.759 200.341
51.234 373.342 203.033
52.7856 374.566 202.979
52.9446 374.191 203.336
54.3691 374.739 204.205
-1.0358 335.416 312.502
7.80562 324.073 399.73
30.8166 366.512 192.675
33.3603 367.287 194.281
34.6434 367.809 195.102
36.1954 368.446 195.724
40.3191 369.446 197.577
52.357 373.414 202.863
0.358148 334.776 313.536
4.75694 323.207 393.092
29.8458 366.022 192.012
31.3689 366.308 193.01
30.9162 365.611 192.67
36.4586 367.594 195.743
40.5476 368.663 197.559
49.0187 371.423 202.205
51.8774 372.554 202.83
-1.0872 333.907 313.218
30.7301 365.017 192.307
46.4815 369.526 199.83
0.375354 334.676 305.309
30.9944 364.081 192.568
34.5497 365.286 193.844
